2.663015925962343,0.29848483832926753,0.13536768362244253
0.3726333520048596,2.2255778704075273,0.08956546678959837
2.6624084348055073,0.47127559322642865,0.12470220628685327
0.14816929588050687,2.236171699338309,0.07870177157683969
2.6610447339284686,0.6362064839670099,0.11922759614755453
-0.004958577693074728,2.2528054932273625,0.07393553531720767
2.424991462359911,-2.5868105598513695,0.24181424638303492
2.6849204061770897,0.759075664067883,0.11685697067069421
-1.0439014500150288,-1.1101579732286593,0.20309602205175897
-0.09467523599044858,2.2947582307306247,0.07996547222185925
2.383177212744827,-2.2394260824070473,0.22131913079799898
2.715759115496323,0.8382004125340057,0.11994144292219647
-0.9886324106045006,-1.1838152913465418,0.19594745987389733
-0.1381314529213289,2.3443945507203225,0.10196868199644782
2.4064310218408362,-2.1459167119959615,0.19443800639938813
2.7419084993605356,0.8822005175371616,0.12312246614577918
-0.8696760077921919,-1.1631101507133799,0.1860717952519343
-0.12028959799920425,2.3267829165975416,0.12376081686861448
2.387213020065924,-2.017224548011889,0.17157052105173964
2.749510114487272,0.9016097587665773,0.13862958987304774
-0.8837061991250215,-1.1953257879582961,0.16364021527813924
-0.1263517206215694,2.364573475467681,0.12985682498308523
2.375952984539473,-1.9155156198950687,0.16260584459863664
2.751203426638229,0.9158313813096948,0.13623797639738422
-0.821096564472489,-1.172465371970884,0.16332014300482403
-0.11113349394755523,2.371726737248328,0.15305445763200615
2.3843015755833665,-1.8568531626269422,0.14907398956168608
2.7489331780061255,0.9233002378889982,0.15000356702820758
-0.8948796412273139,-1.2270450103377295,0.152113500389807
-0.09324976180865563,2.3816711442915097,0.15894002221240972
2.4066252730118984,-1.8221917726526016,0.15242958266664547
2.75823726837359,0.9360297811977919,0.1496251945180849
-0.8353472344901398,-1.2009578706157336,0.16359647843018224
-0.06718421618806203,2.3756371145022133,0.16458061224746176
2.4254284211860013,-1.7836320993455168,0.15181947038623647
2.762638551482673,0.9471367232894402,0.15280199274861758
-0.8193421159400796,-1.1995478427980195,0.16445840435568077
-0.0395706249227783,2.379334413127853,0.15422767828685
2.4212926469255054,-1.717369716942879,0.15709611506937837
2.757272003725335,0.9470324195004797,0.15673957553145235
-0.7616582385166208,-1.1667674481483639,0.15448796217504196
-0.03522273265447362,2.3828651650016934,0.15336470258344
2.443616147288891,-1.6619914670643419,0.15871571300560477
2.757145896955487,0.9649652334037216,0.14554035950193506
-0.8187071433773716,-1.2264141158465238,0.17324562293362145
1.0708039959320115,0.575286887060141,0.1555863967681161
2.5059706406756135,-1.5361303915022722,0.1603589855295558
2.7166980469579762,1.0338218812999944,0.148141139566632
-0.7146470500959756,-1.298473366800792,0.16983677530970914
1.105511274939605,0.49314333885671985,0.1543103175700529
2.56915094282352,-1.3708789233501855,0.16325059685610163
2.666787805204213,1.1455565349472305,0.13601776138257451
-0.6631784176586173,-1.4689007744270286,0.1879208639118795
1.1074949963722065,0.48456509350151694,0.15730761101818777
2.571278332246007,-1.1630989523754753,0.1447562149831476
2.640410530278351,1.2594573219853842,0.12051087006812385
-0.6135670558273363,-1.6320584444679531,0.21041326977789204
1.127466887733512,0.4828234121915958,0.1523976982239841
2.5486111015858532,-0.9959273600192453,0.13670447931098867
2.654509774026897,1.3640818702874036,0.1150272091267325
-0.5204477111042123,-1.6881232968551418,0.20285422819426668
1.1698791202437069,0.4762747276768347,0.14608681265473453
2.535504879170505,-0.9086766382593068,0.147087086228786
2.6789978626880826,1.4166079264405569,0.12041393774961938
-0.5128244183074884,-1.7306273919696509,0.18726733775019633
1.2217518377563117,0.4832039935027372,0.14697107473354565
2.540557213724388,-0.858020302291423,0.14142412159145812
2.7112739178918304,1.4415323043520496,0.14976775373916176
-0.5330755528513818,-1.7485451017358067,0.13963588046656705
1.2655587150780951,0.4893302243968413,0.14268313385251752
2.5463554184804966,-0.7895957804395073,0.14552544046449095
2.7115590424004363,1.4576426145846773,0.1277108797669678
-0.4503451519795798,-1.7087961976220587,0.1683570863901542
1.2959211151507979,0.4888341489144483,0.13824385451338764
2.601423993147372,-0.6898113954830277,0.16143687533084272
2.6639733814747535,1.5251902273992026,0.14425011737722382
-0.40112473205883603,-1.8698983425858633,0.1394380108128079
1.3245172571078896,0.4881636490591561,0.13310018193665046
2.63256343355458,-0.5362680113744348,0.17551448830220137
2.635456792739376,1.665086833771386,0.12083840371626323
-0.003731581197328193,-1.7027129560100889,0.17033893730117997
1.3520765770936662,0.4918149130531023,0.13248336298241262
2.6163599000762794,-0.4123972107815961,0.17735110572020563
2.694283152588189,1.8685889529598834,0.17764697375508876
1.3823152837154098,0.4941876899482288,0.14041558492808934
2.6176121962138463,-0.3203710145640306,0.17100406111014899
2.721835512327263,2.0256979679563667,0.133871465805862
0.015687447651210995,-2.0771180087144487,0.16368276609224738
1.420517265357798,0.49180735788662217,0.14331181899175124
2.635528930125763,-0.2383046281626302,0.18082371450497145
2.684245695358398,2.1112246674122614,0.14313066447416967
1.446617084871077,0.4866800381139466,0.14956380530183927
2.6535987911694576,-0.12883587484605608,0.16854594306514
2.5899511227854335,2.2187309274204807,0.10355299571432447
1.0047656077990306,-0.8871341744869805,0.18681674431268094
1.463455673297635,0.4858162328242156,0.1506331058382892
2.6671270313254825,-0.0025643806271758995,0.1584201635778415
2.4413991590617696,2.3046097154038483,0.0888527984795285
1.4673335814420754,0.48665070908985963,0.15272944043655332
2.6731233124069735,0.13175033397894664,0.13985122449912887
2.244999534575404,2.340886600346688,0.10005188437870602
1.4814693186273031,0.4875355470886059,0.15187480522947114
2.674187467688427,0.26725035536529157,0.13553922419820238
2.039358140702722,2.3289114163122715,0.089513194890319
1.5128661926142917,0.4901785672144365,0.15229645408892312
2.67158399393837,0.4040290647096509,0.13832075686580383
1.8394387400032237,2.3283490434778864,0.09991638645527091
1.5463790701939746,0.5016485832850373,0.15143922501959878
2.6743230198880825,0.5042989087464209,0.14051118203815188
1.7044700883487973,2.327937800322894,0.08684103843496455
1.566804900279625,0.5227490685132994,0.14889729095136367
2.6786854006375815,0.5723045549775267,0.14298064620675296
1.6317540153533618,2.3360573904073414,0.0774092345996113
1.5702975064744578,0.5486633431616561,0.1481592885075211
2.6818549594169485,0.6210558646460618,0.1341824633625894
1.5960538368398276,2.34338375228257,0.09464046442691246
1.5580906937159338,0.5771128769875415,0.14803029507805823
2.6830025644099362,0.6600869315909963,0.13951035174590284
1.5810918350737566,2.3553096844921653,0.11357653945400681
1.5535018420363278,0.6090597689351366,0.14811616523155013
2.679311498028587,0.6933942039066096,0.13909831889033708
1.5772165231159423,2.3645360619373728,0.12042864803661918
1.556652320834333,0.6441277630957084,0.15042839334573618
2.685940122853403,0.7224207776510286,0.14862171606994687
1.584692435417181,2.3651822679495678,0.1548036986399601
1.5555805447862574,0.6832935929506299,0.14876955368485237
2.680472924511078,0.7331929017359043,0.1469826513981926
1.6224638172533807,2.3799216145970186,0.15159515598351087
1.5644435467921665,0.7216140418889055,0.14552895613979433
2.6801474771842084,0.7437087718086769,0.15866526526836386
1.6604050290415666,2.382785366639463,0.1604696305213632
1.5624522565379007,0.7566998892736477,0.14752331871714555
2.6713564190848142,0.7663062093828619,0.15849040128671446
1.6721699604159577,2.385620995418752,0.16590960193960072
1.568659120614713,0.7930250539217023,0.1477597842610773
2.668642142171312,0.7883557696440443,0.15170314216392417
1.6893912423973072,2.3874944573349506,0.15834639603593284
1.5655641516232646,0.826052261088743,0.14439840613811367
2.682341678055503,0.8211103383250704,0.1661362499890737
1.6830574141904733,2.3914033506158674,0.16781420780190687
1.5732017175854727,0.8594275388875238,0.14424854210365698
2.6831098862338543,0.8508256154329524,0.15564433433053038
1.6839566617020825,2.3955477928373616,0.1596728008803694
1.5693589484743944,0.8919313597249384,0.14754227437242554
2.682113092484974,0.869004492566121,0.14289751931281852
1.6943787209342038,2.4005470483966125,0.1273987794475214
1.5724070040851363,0.9267219649811319,0.14949669585852923
2.6882112617880907,0.8568013858522016,0.1534930825057374
1.7476764100643711,2.3990257954719203,0.1925323328334484
1.5789393864467791,0.964219894731043,0.1454945554539063
2.663747935973201,0.8113550344361455,0.17772412823112135
1.8475798385322177,2.3853917087482692,0.2924332588179874
-0.2744246930869412,1.3634054784385603,0.1506723899011556
2.6428292548075936,0.7855169176876318,0.13195836182133835
1.933778268940003,2.3790167095817147,0.26538291980716233
1.4696906611959382,0.043121090304708676,0.0530262665539991
-0.8941333808496292,1.60310527844646,0.08886289865507072
2.657043126014994,0.7737959361009885,0.13358908551795393
1.9941638901089398,2.3724092611965624,0.21341110899191856
1.5984130528228067,0.6715940400383231,0.09891718660398764
2.67200406317619,0.7810329400858645,0.12160534919444221
2.0266521413098597,2.370527328075994,0.1415675006646432
1.6099688151574123,0.6788555643715573,0.0898891725990425
-0.9107313066441498,1.6566421496023243,0.14438462040609873
2.7018515922231954,0.8075140596246171,0.059707081341619825
2.039474976718535,2.3789269928653303,0.0114617450239229
1.6347695172523788,0.6479743804183196,0.1032034723956813
0.9628541965308435,1.2288016897818927,0.14319212545150123
2.7264461734947942,0.8597780014519443,-0.018195161035832824
1.9952175870095894,2.3450693979644126,-0.17358892459438308
1.6653796767219307,0.624989243665371,0.15512860722230506
1.3931770894243622,1.1680465237182702,0.09695240976222161
2.7465613610979824,0.9973014634049426,-0.02992208556706645
1.8039513160503036,1.676886996409837,-0.028578096852236556
1.3906423742610299,1.2162552181648376,0.07329656966033887
2.7176396773261287,1.1549478755045817,0.033792552220436776
1.7373218664646666,1.6877772588841102,0.01965614832193739
1.2239815709288921,1.2620804006006232,0.04288966374671325
2.7002127121999244,1.233200580460267,0.144415884646958
1.7336032799553043,2.4164635197087776,0.03125660709223219
1.1340993516446811,1.2955213285702536,0.029928026800357596
2.699362190768327,1.2503490056663797,0.2248528987435011
1.7299406923378717,2.497320261071335,0.1786506631413062
1.6934177554071228,0.7512487131889767,0.06729436671556413
1.0491696329044586,1.2885293853002728,0.04748322351378492
2.682180500125404,1.2932004691206138,0.23719270802691805
1.6857829236169102,2.475510978434576,0.24046823756569388
1.710088720128557,0.7799350864577705,0.07299399237260376
2.7017467530885653,1.3819573494932624,0.21523314167364116
1.5984419630089899,2.470358839527884,0.22856493367173492
1.7576759964170279,0.6662364350148271,0.09573845988494004
2.7312972110003346,1.4994307644903808,0.17719919993932054
1.4804793798335985,2.470896524512031,0.21057629299579705
1.8689831232039074,0.3237541479759759,0.11730005663112007
2.7561201039549217,1.5745807803866865,0.15055088364068156
1.4127100734242242,2.483743760622903,0.2044133495841447
2.284418401206325,-1.1562072966724433,0.11266972980696427
2.7683268089187374,1.6289512716955856,0.12712209451749093
1.3680339114844438,2.5027612402778727,0.1980582644260229
2.437122023888854,-1.3110222320696252,0.15771927628015706
2.783373107535472,1.6732751365877843,0.1209526313210693
1.3403999793407166,2.516728819407374,0.193550401575482
2.4474608012002346,-1.0870631168635474,0.19342089324165895
2.7956929851049606,1.7139782891366808,0.13449530161964257
1.323655619484754,2.53275304370204,0.1910982653614673
2.465459726359709,-0.9834286257838745,0.21473824621457208
2.8003546606529435,1.7545675737478916,0.15328940102327515
1.311610544096986,2.539644499127546,0.18927796387941973
2.441700591009902,-0.8044181705948978,0.221547869940055
-0.9228719068669835,0.5062888373166932,0.28142405232980705
2.8017804382372025,1.7921350943448804,0.16772131974836024
1.302703878325402,2.5493111950061964,0.18718462137799577
2.461578249352745,-0.8038284253840757,0.2292426568166623
2.8078311921958137,1.8383687182517487,0.18136202957273667
1.2949517029959605,2.5608923343994,0.1808373703372666
2.436956322807295,-0.6983543674907433,0.2378670516251028
-1.0639373567578807,0.5185918908648615,0.19120553789825634
2.8074743368507997,1.87450403458439,0.20002353675774837
1.2921997287988165,2.57070083558592,0.18529681043638116
2.4499774171490722,-0.7352346735998565,0.2220423334687069
-1.15866177106422,0.5398796817223677,0.1883401943958235
2.8119757020265257,1.9118559540389546,0.19930219639489852
1.29535135449707,2.5716936362656777,0.1870620332212041
2.417063276655263,-0.6748758688310255,0.21487951449318538
2.8081408004674313,1.939971269284573,0.20941249898108835
1.2975479946884922,2.575873910850443,0.18580729662101358
2.3923101660575594,-0.6481961172065747,0.21569445646773092
2.8226382424213377,1.9703251183749027,0.20901934587994833
1.3035462627207397,2.573668245117505,0.18800438402467842
2.3755836126318703,-0.6581474686006059,0.19932308360625078
2.816980681653833,1.9947304905971788,0.20362872503019427
1.3072845264811406,2.5816170329150276,0.18614428900872315
2.345173900304605,-0.6718301010398466,0.1957564825746856
-1.2028419862106312,0.7790327615834098,0.14234459959098741
2.817946794591278,2.0151261260397275,0.20699577533087005
1.3140765283006601,2.5853792984433674,0.19104141760106808
2.333629700069202,-0.7303884197880355,0.17852068794090123
2.817220163721103,2.033210765390099,0.19366634985361064
1.3238375839028318,2.5836686011530867,0.18786623412619197
2.303579965658013,-0.7419700049227993,0.16992947939396263
2.823254912328049,2.054828379901105,0.1905856384446482
1.3296505787935609,2.585755333508063,0.18977029763812336
2.28943215179598,-0.811133869840778,0.1603922055101843
2.8262543824825443,2.0753443564760072,0.1864095597269152
1.335063198820109,2.592948781232048,0.18828392372388933
2.2713349853568108,-0.8788614753222785,0.15445074149766028
2.820295475660232,2.092973078567054,0.1809858244372178
1.342665773868105,2.5834425226758944,0.18488310262525148
2.24640168565364,-0.8979758418868946,0.1475123569259389
2.820239414259544,2.115676438188405,0.17934761098238447
1.3432519307778867,2.5952688709006044,0.17907905239087787
2.216463686940145,-0.8693013344172731,0.15492286635781286
2.830649201199612,2.147674374262354,0.1789300226816652
1.3449571878309297,2.5996672358767445,0.17728854098927307
1.8582966756644237,0.5211869533707607,0.16045745472926454
2.829936288937306,2.1924392721993264,0.17697423032932824
1.337058786250012,2.5993381624458136,0.17673952556787562
1.778256303945239,0.8790377164752761,0.16740539608844285
2.8178510807372232,2.291733357029685,0.17987092826264367
1.299333840400058,2.5982660844507355,0.17186606607691304
1.77802907003743,1.044326936124664,0.171845521782912
2.7828691991740273,2.4204760835112835,0.1611723067689843
1.2449412804587525,2.5943228272099743,0.1613352222835971
2.466061810810914,-0.5283858341015839,0.1741518880836972
2.687706601560539,2.52957356745212,0.15680382911825097
1.185338564142827,2.598807930285462,0.14685982847904508
2.6113905529625785,-0.3356889814422317,0.19453162563271362
-0.957211687762145,0.6250171393323136,0.18296160569664838
2.5112394286437443,2.5560795449433336,0.1411903387956151
1.1394374980847992,2.61049005321724,0.13836900859078846
2.6462091513568544,-0.09445733640818643,0.2040028737397103
-0.2647849448041284,0.9491226834220052,0.17059693081584565
2.333641422705295,2.5402047795360296,0.14149064185305654
1.108406672895454,2.6164168914523325,0.13504689638368647
2.6140645348650136,0.1586986824696155,0.20065640731039558
-0.38454905100681747,0.7498971512345516,0.1881050772084659
2.1956487349460083,2.5613294409683114,0.13612964960996857
1.0604340207064384,2.6170100935627234,0.13659601924035697
2.68178868187575,0.30921883942818496,0.19447166217140863
0.40182091928733166,1.2050813664407178,0.1727879378822972
2.051190855769123,2.5728622814453055,0.13810103575391436
1.0026466831016347,2.607268758806544,0.1345921497992685
2.7571233309881187,0.4932164977851312,0.19861347196038118
0.27853936207336294,0.9468237532731631,0.18471217868618928
1.9052895748557144,2.5791384128337804,0.13719799768638286
0.9244916719122946,2.6006402563924107,0.13866234237622815
2.804034526837997,0.728863245470958,0.18533650957492995
0.5667189642778416,1.0953807705151346,0.1854866390520739
1.7843827040484994,2.58565808691483,0.14083759569998777
0.8277604723319086,2.6000609608461143,0.14240699306484483
2.806645418466179,0.9844156553208467,0.1839956537469448
0.5127758614344664,0.827583682317659,0.19297247425023822
1.6763004319835724,2.5810451702332364,0.14190013217150013
0.7105262110461369,2.5976560904723445,0.14238127819859897
2.818070920181787,1.2002746861219213,0.1800841928070106
0.7059513839720984,0.922479395142161,0.2005696511577307
1.5779116680598335,2.579001318751692,0.1393374735497453
0.5751824572024268,2.5846928531714606,0.1461003227445173
2.8177689771648997,1.4051176200475575,0.16984837283908885
0.8936919827696846,1.1082223587576465,0.19690534469853205
1.5017074533184989,2.583888225750888,0.1409014469378597
0.3044117520256624,2.615075620893409,0.1403097967722064
2.8158665051980813,1.581720096322638,0.17809051416518087
0.9777483388213699,1.2609394534440237,0.18697843626769364
1.442444576054659,2.5871123660204423,0.14051540741892254
0.017183397846815662,2.659178768770035,0.13786824132614045
2.7796938745265916,1.6923800517292333,0.17200190451561548
0.9541700802411834,1.1929208997791059,0.18608273479974122
1.4035316556543602,2.5939710221234353,0.1423022685947438
-0.11150321259976415,2.666789956342314,0.1359186337810837
2.7757527378657745,1.7419234251569646,0.17332152129688333
0.9507638840208089,1.2448951373490076,0.17119597296028707
1.3719463899434872,2.5944331088725523,0.14383614619167445
-0.15626707907460924,2.6720968673746643,0.139721085195528
2.7676919998214844,1.7600285359011143,0.16346268716683252
0.9506672828181006,1.3456314210436946,0.16169468490105168
1.3430625009934816,2.6016832757392936,0.1470068985177547
-0.18423318279029255,2.682752841444717,0.14510431822016986
2.7566175303704625,1.7641690785684048,0.15783041274576823
0.8895211355021504,1.2445402874058378,0.1560457009028167
1.3170316055696225,2.6070240636133866,0.14851193996240886
-0.1768192229132417,2.6827357803675227,0.15104929827403066
2.754277012638237,1.7630306908421225,0.14986344962168022
0.8884286726400172,1.3406227552965413,0.15413992532421333
1.2887476405672948,2.6162750045904404,0.14913365035626014
-0.16882158935674307,2.6806806075804372,0.15743173942194458
2.746923816820699,1.7656169647308517,0.14248998952474068
0.8361978833296921,1.2662327168586371,0.15404108463957047
1.2590258526496538,2.619722479002574,0.15159728998662295
-0.2092437725674543,2.6918356845344675,0.1601992230674802
2.7429930662933666,1.7695305027586352,0.14288451999417734
0.8870429961701232,1.5249774199953496,0.15173928500319725
1.2265165267975888,2.617444879996114,0.14881168482531829
-0.19473800510220873,2.687360261408732,0.15632134501841394
2.7417105061218088,1.7748482597767925,0.14159083898764654
0.7802782883851064,1.275803284940091,0.15220450101040522
1.1968588743968829,2.624943006921365,0.14704446899735854
-0.18924129493461406,2.684559611615092,0.1533833193652976
2.7440729065010157,1.7787813812390945,0.14182507412734457
0.7668438052104631,1.329187141689591,0.15553565409865683
1.1648394574395486,2.6285723954246585,0.1466799676430943
-0.20155798322045126,2.6883746746880965,0.14927256338861883
2.737656717699023,1.7881012423520686,0.14844254606989382
0.7516489121614894,1.3771153549340407,0.15117209137705498
1.133056802074555,2.6292950407554474,0.14375212316515967
-0.21873882424405156,2.6939441798914023,0.1376633240333848
2.729503385377976,1.7960347806523207,0.1563872168214321
0.741933677684771,1.4464450003356584,0.15404921513082057
1.1025621417527682,2.6338176910862776,0.14085057264032325
-0.21664424080785172,2.6947963222335525,0.1397890856036301
2.7247006260976976,1.8015725850329019,0.15063939572290616
0.6535951875333708,1.2479827508372459,0.14669914837313164
1.0710917114353462,2.6344700211051744,0.1393709893440801
-0.22276895231921445,2.6971707827052462,0.13602475513561965
2.7264217640540016,1.8091796915760345,0.14810534010434015
0.6589483031312936,1.3593032310362072,0.15045143940893482
1.0427764702599398,2.638924380318754,0.13854965687527612
-0.21331350055419063,2.6941567933647095,0.14206615645279702
2.7195817252242476,1.8144035168193278,0.14012527683016437
0.551031211768754,1.1050856131192368,0.16003842868706405
1.0138607804448285,2.641795073024242,0.1416583797865425
-0.22741259490938215,2.7023496669525264,0.14474849158787875
2.7236488538504497,1.8135529824106666,0.14563120950184696
0.6723195856282661,1.6248566278043124,0.15431490298695938
0.9823648751280465,2.6436639826590373,0.1429794650634979
-0.22741354535734204,2.7076389009195667,0.14359846541668295
2.7220469919290955,1.8101260447571859,0.15009554270158376
0.5946676311183887,1.4878669549613277,0.15281438288116464
0.9548503330364528,2.6471849685365334,0.14601992638756306
-0.221241324749202,2.7141322577492377,0.14533220983231127
2.716257303031531,1.8015315395422657,0.1514755732781419
0.5420010802011166,1.4447283932336412,0.15396010260085077
0.9262100010366968,2.6520496821786486,0.14704559534985356
-0.21673177560850676,2.7208943639232412,0.14939186783855699
2.7067971679933494,1.790519455839745,0.14714546385883917
0.4043695129945053,1.119768383336875,0.1475435856345186
0.8991877702901393,2.656046617079773,0.14782779455931516
-0.21562998469363714,2.7241037144927867,0.1462138972116905
2.6970132397811803,1.7859726710395665,0.15064020835214273
0.4044610191904436,1.2248988565222174,0.15099841660371036
0.869776102924713,2.662466368491151,0.14941053095951484
-0.21959108515214099,2.726027530883101,0.14908162837120076
2.700261498063027,1.7809250668400531,0.1508773876731523
0.3891842783854793,1.2864666893141075,0.15391167797205876
0.8405156300745648,2.670735901310804,0.14801594217844471
-0.22175892506271,2.7289143767622708,0.15494663493229557
2.703605875506785,1.7750453134820472,0.13752269433581307
0.35003646329589605,1.2706891135819405,0.15219239638992726
0.8090155444182358,2.6703435846825516,0.1463132280676408
-0.2237721192864971,2.730131891706084,0.1463197533676202
2.704790672115,1.7698020102592844,0.1495594476502873
0.3043354811145993,1.2359187355804937,0.15404993544790052
0.7775698635610001,2.6729712214106893,0.14413165738018743
-0.22477024019629688,2.7303512018782676,0.14244220736573576
2.6959420615653125,1.7686083337776082,0.15318027031574588
0.20874424569897426,1.0061898368967623,0.14669185429242348
0.7456338451152524,2.67494889666458,0.14536577682245985
-0.23398948818310916,2.725402308013014,0.14612613247126957
2.6980000695581157,1.7820922810078872,0.14427511977441448
0.2784454479643154,1.1165145676652035,0.13680067410708543
0.7049048119874894,2.681436340140867,0.1428220417738497
-0.2537163992191168,2.685615500627806,0.1456341659538675
2.1004266239600486,2.044122022163212,0.13579833837034047
0.44409017153299096,1.5824086050996953,0.15599110734243074
0.6576951703671681,2.685762143847357,0.1370207882606604
-0.2993735767185668,2.624609067956826,0.14228525982659804
2.7382111298482816,2.0364767107072077,0.13835069667441383
0.4968599219338515,1.592822057550252,0.1511457396778675
0.606567009793107,2.6822008223141167,0.13554888887400357
-0.4134348346296418,2.553761623946732,0.13744880911821336
2.7426049609287495,2.2359915327467097,0.14180518266467596
0.5358195046330629,1.4861842166902428,0.16430843256845845
0.5529221981926733,2.6907110402322663,0.13519435966943066
-1.7951485748249767,2.4910821725949934,0.14028946576815815
2.728395705309941,2.4268787250316683,0.1413204748159448
0.5636640166935919,1.5619475444253461,0.16613289005389625
0.51340032517162,2.6904747770047894,0.13785132996312596
-2.2863331262922233,2.332051166251475,0.12102527846816119
2.667550197197133,2.5536941165133142,0.16096798560317263
0.5802014115602341,1.423107499180725,0.1691831797131262
0.47307798444881477,2.693229184121726,0.13851598540818583
-2.32592279373729,2.2185042114760902,0.1492790732634738
2.609564265338677,2.6345554962002975,0.14045761233004656
0.5840837685647886,1.334196985292526,0.16217671309698609
0.43903014001176793,2.701381987878991,0.14243808228707094
-2.317977870985872,2.1575441212056816,0.14938085313614838
2.449271297305268,2.663249933552665,0.14363639616288576
0.5537476198430447,1.4331307222967773,0.15507535094200312
0.4082503914355004,2.7037608323131126,0.14201089360164698
-2.317378864343945,2.13212392354344,0.15842444201266656
1.831482361822688,2.606988108538776,0.13767518130729675
0.5427262907505951,1.2546975912897824,0.14559668212194973
0.3699237628835926,2.702420231635568,0.14403367444405463
-2.2906759431467907,2.118969029481827,0.14073231466502428
1.6692110144070658,2.5916332668461393,0.14600508544245058
0.4839194580032009,1.468953259678806,0.1419457139825201
0.34268064471395404,2.702882617256272,0.1477713580762518
-2.3326019754542764,2.1218766845847434,0.14786315293344943
1.6633050287067797,2.5792683203991142,0.145836928940713
0.449752285139271,1.4161945509941611,0.13851759376505152
0.31405915906158804,2.7080527715773015,0.1480419544800376
-2.3552893951740694,2.141225364688288,0.13054947611128284
1.8912988641512505,2.587096294561459,0.1547831232652414
0.4072722938346068,1.484976019661714,0.1418669570725777
0.28482827934240185,2.7118756663175265,0.14557105627138334
-2.332688429813946,2.1541430706940177,0.15844075193164137
2.082313243326479,2.5948274597442307,0.13549526403777254
0.36861257560377697,1.5726611541831783,0.13352068503592235
0.2548846703851808,2.7139017432697368,0.14916937175255557
-2.3349842921883663,2.150503296911611,0.13286147981439397
2.300037631619283,2.6121015725274024,0.15437421490213876
0.3892260866331825,1.1562967299137155,0.13566137619628763
0.22277405299611758,2.714368587114201,0.14961875051645332
-2.352456072418507,2.1275082018291354,0.14591883970098968
2.2811781923842824,2.622513978309028,0.147586561815577
0.40216706266810376,1.043379070704556,0.14149194303742277
0.1843111964751709,2.7263237811882868,0.14819440677541357
-2.328392376277886,2.0713233830935662,0.14867811100424452
2.270235135532091,2.666624816121436,0.14548257359273278
0.39560751478903,1.3129196642667618,0.16077251676608587
0.1338509580813549,2.7237720674616583,0.1464896102086891
-2.3537899756025933,1.9238860418838195,0.18081061172878754
2.0046135929720608,2.731967237849923,0.12778124098287713
0.43436919070402025,1.297589531835471,0.1619697988229642
0.08269894112344334,2.721739428287593,0.14733736924528226
-2.3488261818578633,1.7691315017916716,0.15776400282874517
1.298626719253412,2.6697050387185,0.14758369035591157
0.504534709999725,1.1232866086416786,0.17410567051502632
0.031648191760161246,2.7256834904663756,0.14338802109727325
-2.36138633862646,1.6452023316674909,0.14869856324495834
1.037679101008672,2.648340932734192,0.15045473179312455
0.419045621930264,1.39671403042393,0.15907820654647659
-0.01182053599963348,2.730788252740955,0.1447840364077988
-2.4075398208815657,1.561937239202728,0.14844684891495014
0.9363827766555401,2.6419268734150796,0.14867416931784666
0.4701576577740739,1.1823130366569106,0.1625717358926444
-0.04905245322702684,2.7368183577101695,0.1466009046265833
-2.432321965813506,1.5263743974416046,0.1405305318899533
0.8939772020602529,2.637504640964372,0.15366170591893238
0.4652142537973356,1.1047716451178853,0.15546636916031517
-0.08527952806238731,2.737455010777686,0.14993250689570362
-2.4322198712678396,1.5166009670105007,0.14432632709258095
0.8558848642366514,2.6252862361887868,0.1535035957500746
0.4817085717733283,0.9780590501739739,0.15242144895661505
-0.12251144756579443,2.74563659500122,0.14898760966010216
-2.4237105074657754,1.507706555672619,0.12836954856477464
0.8643508492381708,2.631737333693955,0.15721958514971587
0.36679482184074624,1.2196475682410663,0.15707086536354387
-0.1594558309345756,2.7517374182006478,0.14438456943545128
-2.4329000381670123,1.4993491261065928,0.15621683156128036
0.8583682246634426,2.629758078820319,0.1448668663781954
0.369052243249935,1.1090161637814322,0.14747301922493705
-0.18718317976897578,2.7524332724469858,0.14475988002354376
-2.441231494663363,1.5081058661785556,0.14202124330917273
0.8550734630983016,2.6237900306298187,0.14676156276627064
0.3014853017317233,1.1868401976668137,0.147074845705172
-0.21393185845383197,2.7468944946742813,0.14210077546100094
-2.4494302949553477,1.5218009028282398,0.15571810328415608
0.8719675910377981,2.6190836503384287,0.13866949815783838
0.31073838465431547,1.014858634591374,0.1328633296846743
-0.24068449898879116,2.7377480605184763,0.14097686302715373
-2.454555427837526,1.5420166759216063,0.1357839555091394
0.8731628198225837,2.607055611535766,0.14018052414655308
0.18840363960093187,1.285272695460122,0.13972834438596166
-0.26883233701431486,2.7348710015495477,0.13961577720767018
-2.4624111453813544,1.5480430228773279,0.1335858083975436
0.8869134328345665,2.6044961569174756,0.14228324109295243
0.13523776859462466,1.3325147774062902,0.1379557437296738
-0.29535246505293933,2.7254390540613858,0.14881899334542426
-2.452727423471158,1.5645455708067946,0.14109828567001098
0.9284167254839748,2.609699599407423,0.14728702434153434
0.1791932826704416,1.076108833686277,0.13559686532272072
-0.3272168567047846,2.7291453879363745,0.1570426353235114
-2.4703495826097184,1.5654553610214805,0.14552567330647234
0.9134457359965651,2.6019802690794913,0.15367163878243512
0.16556200097337842,1.0261029454920556,0.14731446676470886
-0.3581499199867819,2.726254665735956,0.15445253344446483
-2.4741683510251735,1.5585770913212933,0.15416667524241606
0.9213801608629311,2.6045469023011405,0.15162542884404315
0.005941994822832364,1.4458249838594814,0.1542057102737509
-0.3945094524357141,2.730873925971617,0.15616906582415543
-2.4735860929115616,1.5509024445006654,0.14794556639190745
0.9376084728354466,2.61389334377584,0.1593903327171315
0.13058779384438318,0.9524521410513502,0.1582101194376744
-0.4316934657122685,2.7442938835272637,0.1530182919878041
-2.4862825942523035,1.5430364869101845,0.1552942440648368
0.9294892377951582,2.6149045930254458,0.15404745458392924
0.0942206716022892,0.9670763105288771,0.16158063137275214
-0.4713851507476189,2.763082231788382,0.14967330066092963
-2.483596462070957,1.5422621713437095,0.14953692515962094
0.9043546219684091,2.6092480191404785,0.1552511843322572
0.0314498895912223,1.066510969177053,0.1593659063795498
-0.503951649369455,2.7640297791748956,0.1461340591144795
-2.497356206110987,1.5375975513741138,0.14462947488338782
0.8748559065212373,2.601271125702058,0.15357345011402784
-0.03763099162582484,1.1856723843490018,0.15640983961895147
-0.5347828190934933,2.7673502852526357,0.14645603438520083
-2.496229878150045,1.5407411926560244,0.14570205977000053
0.8617777161433666,2.596269683624986,0.15238048926778874
0.026694924072486137,0.8751360654797948,0.157584199602332
-0.5673892818876691,2.7659821288022055,0.14814380518079645
-2.4804897829496806,1.5454062453783541,0.1464159046149758
0.8728726768789103,2.599034309178408,0.15370398977447677
-0.05668159007775997,1.085893611841998,0.1537160844505991
-0.6043876280072478,2.7658609318583336,0.14960516086683284
-2.487258194228465,1.5177688884703615,0.15124286945778373
0.8251483863093727,2.597684859263252,0.1508670555711717
0.03422819121609827,0.9023411040928777,0.14935546366866737
-0.6662077047087466,2.762860777382584,0.1490376556704768
-2.4688468285131235,1.4206679783901888,0.1649020706533069
0.8234755208782174,2.6601349011547906,0.1392253288286538
-0.061327289805884644,1.236714973417512,0.15352542456384627
-0.734112037443408,2.7542550463976028,0.1477974017029418
-2.467131996874583,1.2870032386375463,0.16106212326109198
0.6730815652962756,2.679116672659971,0.14362736566314363
0.013307055540570323,1.10899020249697,0.16133833020989974
-0.7985833976985102,2.7622948759801433,0.14180506171898624
-2.471768508151344,1.1922121518074467,0.16442862053231874
0.559496376256025,2.6804974762376776,0.140575032869685
-0.009737663019376175,1.1769348554024315,0.1626394636979761
-0.8617355296384464,2.764628643258876,0.1395727934005725
-2.4701519387141744,1.1050726569558396,0.16144934115602658
0.4667732127674412,2.6808197683986235,0.14193792464124125
0.011780019031291555,1.2166855737573077,0.1584410819804758
-0.9403780297966693,2.7535294858871016,0.13920986252563272
-2.456409338510978,0.9569821370616844,0.16627819136846983
0.37863762952810387,2.7130866604419888,0.13745819873068504
0.1196491611384497,1.1627413626856518,0.16129765711438282
-1.047802509450583,2.7419277856995246,0.13843200148138773
-2.409362482596521,0.7669742040294807,0.16867749330245854
0.25317974792793063,2.7348753727521924,0.13777667108581884
0.9337642220994109,0.32819997328876704,0.17594312960391958
-1.1622980772402087,2.7365657422285894,0.13662188488804897
-2.386078119481481,0.5558903501703247,0.18141298538227535
0.13121800332446898,2.745961166882592,0.13263750084960188
1.3096934099324973,0.06699168847984716,0.19498169097729084
-1.2788513201052887,2.747658195158722,0.13179735301538573
-2.375272049421336,0.4068015526063469,0.1808459344881229
0.024824133215088473,2.723330319017794,0.13470713863993802
1.0259065868931503,0.46210576598479136,0.18771728056290768
-1.387302779806637,2.7559639059343457,0.1282581663786081
-2.332827464150931,0.30698824737187547,0.1978232083475407
-0.03958419213704689,2.7177147010104306,0.1269905810467642
0.8841429786659953,0.7350703423440668,0.17236717034252996
-1.5081731820698776,2.735917722276948,0.13244037110070495
-2.240986752996161,0.18671688395195774,0.19169706818580842
-0.11142765533003673,2.731685014540373,0.12943741964238906
0.9468098906119131,0.8134684917689763,0.1720070547642064
-1.6749215767683983,2.731980698337578,0.12915817852275543
-2.1196200923418727,0.09526641755101384,0.19596410447951276
-0.19591485850434665,2.722542982445547,0.12650170557122908
0.9487212810266827,0.8723968178836341,0.17161449613637564
-1.8435779668160033,2.7533597316552036,0.12999205611738224
-1.884845456272782,0.28225436644748947,0.19059955033702214
-0.25767513042250206,2.696430857415407,0.1288532862384812
0.9192440975859246,0.9049018952215753,0.17040361018494404
-2.0171414189652515,2.7870108897463615,0.1323269648838985
-1.8625896632103536,0.2306743996348486,0.17835417550359225
-0.29744852098223806,2.671702560226314,0.13694494821890368
0.9554065046519142,0.8889221582019129,0.16214538322167182
-2.1447784475504994,2.7981624165952583,0.1389959152401017
-1.7992754902492556,0.26261745176234097,0.17771849013555235
-0.31782635448932545,2.667672248490308,0.13716133426939717
0.9551183428656131,0.9324296026205113,0.1597353342920702
-2.252358387952458,2.7607005914355414,0.1401850729655889
-1.5139624419595186,0.62937549905451,0.15534348740050366
-0.3467294385686918,2.6770376464647865,0.14555339759671104
0.9874814199076161,0.9187930730035515,0.1568862144479023
-2.3237882985977523,2.723162485276189,0.14328932641142905
-1.4553609252959374,0.6783602857607725,0.15323227149954644
-0.37204713804745904,2.666346974675781,0.14721869900896997
0.978878426621465,0.9133675650915041,0.1648260933308619
-2.3707881532458988,2.6904140456358916,0.1316054716556817
-1.3797242115531034,0.7903809712101324,0.14638990822049286
-0.385261789733547,2.6649281297688323,0.14759071140473282
0.9860329204813034,0.891161595249236,0.1600604683914964
-2.3770263100915305,2.642840320718342,0.13326019977745976
-1.4611190052419243,0.6132039162004865,0.15111725381673222
-0.3953462655610303,2.6592471475196233,0.1419214435627331
0.9698688406378395,0.882551718746383,0.15772385033997782
-2.397882768552483,2.605591171519198,0.1359720002037931
-1.3924652817253107,0.728648499579329,0.14550528050790762
-0.4045414964113906,2.659598188082074,0.14645126262570063
1.002576204148191,0.9195710593859154,0.1461732163352119
-2.428702880805261,2.5148688980670197,0.1440175121813278
-1.3507261772012638,0.7157281476655293,0.15317102144402686
-0.4396834848259442,2.6752427570794612,0.13818075250395512
1.015961282144293,1.004079962756427,0.15362371038163103
-2.4535782720891346,2.386941985098092,0.13903231651984285
-1.380905901629658,0.47065484651985634,0.15754145406009107
-0.49819531065338346,2.6851211820088348,0.13712426609676018
1.042323575828613,1.042013640471307,0.14967369901344307
-2.4596185913148982,2.290979362622391,0.1465619673688069
-1.268565694439226,0.6443465770604662,0.16704284519777232
-0.5423691160299455,2.6804207928522303,0.131205472322462
1.0644170207216022,1.0569069713157153,0.16151570200699678
-2.468144832062133,2.213024992364053,0.1394503974674766
-1.1089511590398344,1.0391096461097986,0.15978064697178238
-0.5732533185691162,2.6754567658487325,0.13370522871811896
1.0769616157124975,1.0598504207848736,0.16867847014327564
-2.456138241391472,2.1478586679188467,0.13328844470715315
-1.2270103472649847,0.6184460126062665,0.16097507776192727
-0.5931856965094513,2.6758986950061936,0.13723119897242195
1.089160668022882,1.0612274577119805,0.15985390163724517
-2.4626206295962882,2.09066335628026,0.14209595632804056
-1.302221206561995,0.2968523137314989,0.1687628393818577
-0.612305098417471,2.6766377491693913,0.13528082928099008
1.1113132169475817,1.1230421143215767,0.15462936710331035
-2.4833905705227064,1.9866825185602535,0.14838977471092724
-1.291402452800356,0.07331612449214453,0.1607740090243536
-0.6641549429008016,2.683970448041421,0.14435559685153224
1.1330893290263897,1.208255210989293,0.15428195304029582
-2.4944539548327938,1.867692818058129,0.14789711855075077
-1.4260808567702918,-1.144891019849413,0.17127537585525665
-0.7299469078521548,2.684237282862404,0.1423277242241893
1.1910045111589036,1.2466213978590237,0.1510351027978561
-2.482175968943398,1.7750715010424334,0.15361367621387276
-1.3190927755889141,-1.0956297200875347,0.18341274229395876
-0.7761840648437357,2.6782651784242772,0.1394078927483625
1.1753778980065164,1.2702222124640432,0.15844081119204362
-2.4931307643047633,1.711469474498346,0.13920417181983805
-1.269099656689954,-1.1650148414851649,0.1857533661429992
-0.8067108756426227,2.6768706830447617,0.13086956553684623
1.2253930111289275,1.2615008841664175,0.15812828963299558
-2.5031364926928426,1.661930263705062,0.14315995195379008
-1.2347101536290095,-1.1442356731229686,0.19083968931864154
-0.824586083353009,2.67232393860999,0.13090658436811706
1.23583502916463,1.239609692636143,0.15330207033865095
-2.504742871005094,1.6211944318336367,0.14493191063652994
-1.2222134097235244,-1.1380440650487156,0.17782717271518225
-0.8340619159020398,2.66596199440637,0.1347886147334947
1.2676422029244363,1.2069158412950753,0.15329516589792605
-2.506160159152936,1.5879554345060953,0.14471843080676688
-1.222770513613327,-1.1596430708825407,0.18276407323593366
-0.8365258310583956,2.664563278977119,0.13180488475046465
1.1585437705806423,1.1843408049066462,0.16349998415335978
-2.5076129589374543,1.5556936112271127,0.13866195188247926
-1.2264309368265733,-1.165228392464729,0.16398143144754826
-0.8393071657490443,2.6551438431831014,0.14181914460909875
1.1524767897820332,1.1493767229452005,0.15658300515289245
-2.5109526738052534,1.5285075180895706,0.150803256563071
-1.2354862162064162,-1.1941696832787487,0.1741307658482616
-0.8374809226011931,2.651160604745547,0.14278172654548352
1.1181898481219013,1.1167303190205895,0.161975893910573
-2.5096283272185556,1.499602832031124,0.14623024529136536
-1.2372226374035098,-1.1736970479269382,0.1601051270029633
-0.8338349102310278,2.6480574172834777,0.14914386745516986
1.1002378801218953,1.0826418899448833,0.15719722115631835
-2.509761438048513,1.4724554333471815,0.14664619327595252
-1.2483896379981008,-1.2185083986744387,0.15683622708840206
-0.8309593820961956,2.647008343662843,0.14810145932762855
1.0770624450209452,1.056645198799871,0.15223914068354794
-2.514903036931814,1.4457641865187432,0.14043279253842725
-1.2486114011611043,-1.2100409906306608,0.15609657891223688
-0.8307923959789295,2.6463560156218016,0.13965245912349
1.0511192432134036,1.027671300179308,0.1522538583908918
-2.5177723077239316,1.4161089666819937,0.13711196649938195
-1.2464375617508692,-1.1816908810689415,0.1510372925934938
-0.8297089960230204,2.6466771955781443,0.139368007444016
1.0609132937390924,0.9916986194780404,0.14125712363194726
-2.5209303677797315,1.3907122150820002,0.14088975376172908
-1.2536905015921498,-1.197484282957051,0.14994564042578326
-0.8258926705148637,2.642735129996316,0.13580788594817175
1.037892667345119,0.9597750278346431,0.14172071711572262
-2.519655380528964,1.3600888903292767,0.14255651728788385
-1.2549233457744493,-1.1993777404325074,0.13651944161937082
-0.823410916146678,2.6354097169681987,0.14563972883898663
1.038051200166751,0.9265029582453057,0.1461925630449439
-2.523086585349094,1.3306314512238195,0.15200924029417182
-1.2560453847777473,-1.197343713931828,0.15872938992046096
-0.8217243754500592,2.6300632694081,0.14372789875014944
1.0387651321660791,0.8987312138431602,0.15411683111566737
-2.529019495528944,1.2974594619419135,0.1487657049549725
-1.250478974167007,-1.1909318569784517,0.1451909102319656
-0.8243325563444237,2.6223180072276837,0.1548709778387156
1.0235160092731093,0.8711335932003332,0.16372382705721092
-2.532080824809708,1.2614066832614017,0.14509404889351554
-1.2465173294795857,-1.2045715594266686,0.15950952889434628
-0.8257445534285539,2.628387312715139,0.14890031574216114
1.0304726024155473,0.8435465320356909,0.16162075783787147
-2.535965510475992,1.2268585218357415,0.1489674819710701
-1.2426410922847935,-1.2253838095504404,0.16008042343856224
-0.8286251515727594,2.6264178677983896,0.15055996078864523
1.016006246911834,0.8204692393257648,0.16636323229111896
-2.5407160824688266,1.1905958808785755,0.1438123809138111
-1.2330272709301147,-1.217684767554469,0.15911893373881947
-0.8327151317442391,2.6285276022851467,0.1496533480118186
1.0184787619439284,0.7952530116060782,0.15599176529645736
-2.544433753009695,1.1546498274387054,0.14896755315486573
-1.2252977782346866,-1.2217034812922654,0.16478628059279687
-0.8374609182573688,2.6227196680373246,0.14266798631654418
1.015794335684355,0.7670120354824816,0.1580658266942533
-2.542647353525275,1.1206229019490126,0.14296285971083736
-1.2197310761088604,-1.2306950581339793,0.15964738960691766
-0.8368752144573421,2.6212844973719402,0.14187400603793315
1.0345697050547926,0.7395377012052067,0.15781776115215423
-2.54044665659697,1.08798759043785,0.1403624291313501
-1.2126530487444231,-1.2257319808498912,0.14797034513958915
-0.838491015735497,2.6130766552470366,0.14780157822616136
1.0134852164883967,0.7149099142558307,0.15378459115188745
-2.5438685896323254,1.0589878587202999,0.1358886080406779
-1.2094115534202423,-1.2341193065353027,0.1349153878818512
-0.8372985159940893,2.6138986782575557,0.15058306442272998
1.0240781670975854,0.6843564613581885,0.13905902277983223
-2.5454379413221124,1.0276429886649578,0.14931143234820762
-1.20474531142496,-1.22303819168425,0.14467499391381883
-0.8366622400022562,2.604302884478286,0.14504815746371952
1.0055792902245182,0.6575813883525047,0.15075422081089235
-2.553031770538625,0.9994345290395774,0.14377221417945674
-1.2006850344318125,-1.2160330267816564,0.1451192274461013
-0.8340709819279349,2.600397285484982,0.14825101911460103
1.0386404210129414,0.6182072572234527,0.14452277216333984
-2.551093465264713,0.9705981037289022,0.15348474790000016
-1.205269601107567,-1.246488271787289,0.14661960656083578
-0.8272677032570728,2.6039979694887023,0.15221165142040802
1.0441064007866219,0.5804491814717743,0.15113995178511402
-2.5572484570010667,0.9473834769315213,0.15269272494083252
-1.2080673895128402,-1.2305850340260451,0.14698199743823032
-0.8181207683385147,2.596588779279104,0.1565337190659175
1.0755609717449666,0.5395593326157246,0.1539147947766282
-2.5570507179620066,0.9249664969018621,0.15229321493867407
-1.2138369148565888,-1.2388024214393751,0.14353266886709892
-0.8069193464630622,2.5966294874994826,0.16167555800665376
1.1223623892615988,0.4870261555279378,0.1583113672487871
-2.557817020404034,0.9062509396233753,0.14622447049040221
-1.2258207974450768,-1.2372242996800857,0.1363776173868384
-0.7901759622954506,2.587938036160123,0.1654754193130081
1.2047555444477975,0.4384806041113486,0.14911262773736308
-2.5568254812240103,0.8850801304977669,0.15013748736686525
-1.2330642651491008,-1.2478451659614913,0.14086804617206808
-0.7784475737136629,2.581222269880512,0.1582529719022897
1.1768586044651275,0.4019151749122096,0.14188636216563671
-2.5627575865608327,0.8634204567727594,0.15226030217447173
-1.238896778906355,-1.2435380975002484,0.1337343060546376
-0.7667916895063351,2.581331589329241,0.16210089441990627
-2.56661803274584,0.8421500886530274,0.15294810522973135
-1.2444447639694576,-1.2424567154485653,0.14599687321525734
-0.7559326579661751,2.5764203208740035,0.1518367136575321
-2.565274522978331,0.8148563211717623,0.1546577045556532
-1.244009105266317,-1.2415787584281373,0.13726634609085203
-0.7521144773006594,2.579786783489312,0.16579825847841423
-2.571415894879318,0.786490848105033,0.16203398336123992
-1.2483935492881884,-1.2557002778286568,0.14941343566179732
-0.7494172689863188,2.570895905689666,0.15749551331028733
-2.569871897408686,0.7589341907426029,0.15389741066575618
-1.2492446767601544,-1.2501323388662053,0.14786220662981653
-0.7488189233978944,2.5601361726953153,0.15663347646777365
-2.5842966875689397,0.7307050784465331,0.1532631163637521
-1.2492315740838749,-1.2592415199600404,0.155180991547047
-0.7481903934206446,2.5529461909889894,0.14077294626705122
-2.5838226048324464,0.67238518412594,0.15035158608985483
-1.216977118590469,-1.2636953458032312,0.14908731985505144
-0.7835893907747997,2.56384244022394,0.14329301981197726
-2.593091175311889,0.5558876030470271,0.1532120967130664
-1.1218577506266387,-1.280198010729856,0.16005526633519784
-0.8966634472146425,2.5680866268865374,0.12815113499692238
-2.6040147356892094,0.4213621508733937,0.15039193191532935
-1.0039985162826492,-1.2876374854180106,0.16530302817910789
-1.0377392183899132,2.5659571519116744,0.12073918448041356
1.0709244201387875,0.5135874984651458,0.15392447737823403
-2.6129992219959592,0.3202821582313841,0.14613702864495312
-0.9283167494282479,-1.309597908721429,0.16616036435696732
-1.131437331234991,2.5628961003588686,0.12852821209731907
1.0626100249808004,0.5422138402427381,0.15652516688796977
-2.6170505808525464,0.24089542081020285,0.1435237827751015
-0.8777602581972126,-1.3343176846351883,0.16680136749931007
-1.1959801179208558,2.553473993629376,0.1266393544239096
1.0572154785937795,0.5468958150220271,0.1512587077030811
-2.627678678139918,0.18122678579808074,0.14417247201203
-0.8459866118670568,-1.3582517439982609,0.16617786399756826
-1.236137762066157,2.5741995252121432,0.12243891929380112
1.0881208898216883,0.5605573702635505,0.1469183598299511
-2.6282080400948136,0.11452289131631962,0.14815458632146364
-0.8057353441351585,-1.4000315975757018,0.1622957552467639
-1.2802441530692954,2.5534493771580293,0.12833147014701096
1.0448597995944673,0.6335806399753401,0.1523549646543349
