1.0925564739277434,-0.6002833454631911,0.30909885820892796
0.3768929143209332,0.010162097629541955,0.2985144140465463
0.06349301287199616,-0.7160752706405427,0.3049008606280266
-0.280138309438278,-0.06915456930099842,0.2963497967844639
1.2006744408448977,-0.5402109857774535,0.3110280492396287
0.34691219502919374,0.0052598452904571436,0.30036971570157617
0.12195050630356716,-0.7018046090501395,0.3043816994687897
-0.30451331255338465,-0.09262683025036969,0.30303326729333246
1.1913487506974114,-0.4789509629035587,0.31627533121224327
0.3251853800896072,0.01017649866831935,0.30703727115731816
0.1451223039172693,-0.6869385691094063,0.3098427794200105
-0.3059711482594074,-0.1142661625911934,0.3097699097248944
1.1684060238086849,-0.4445778343821082,0.32484153747992983
0.3090884170722824,0.010279125207760226,0.3171997402121006
0.15566949876988834,-0.6747351334989375,0.31249858339310044
-0.3113673360539262,-0.15323032936941317,0.32600660413463467
1.1729329804916255,-0.38312777415375526,0.32407394161734243
0.28813250969282805,0.012906570541586504,0.33085071783895353
0.18191413614863128,-0.6727503024615348,0.3157407997317241
-0.3130779347583954,-0.201331632680485,0.3319196596210521
1.159527778558322,-0.30112912725800833,0.32492872384596216
0.259104057873952,0.01845546426203104,0.3331025902435197
0.21240710634020715,-0.6698869073001659,0.3228960124828072
-0.3066624289580073,-0.24996626026657753,0.3329024998609977
1.1450620380366976,-0.22170363961498035,0.3317639908165885
0.2311869604569937,0.020319172538382557,0.34352413435603124
0.24444653949061335,-0.6619351674202067,0.3145034663499185
-0.29186341365119983,-0.30454209991367476,0.33329716810331134
1.1427802696170402,-0.13215088331947733,0.34348394873858645
0.2133395818997533,0.016988317038297562,0.3416112682370932
0.29417919469463916,-0.6550646211375839,0.3298297024524538
-0.28513100378019796,-0.3654016548818451,0.33748951686997586
1.1217707855182144,-0.03587019167765579,0.34532341930951505
0.18288041251322398,0.01740672901187168,0.34278625546141755
0.33957863884708095,-0.6514562890485833,0.3367093372553794
-0.2665640056043411,-0.42196428514043793,0.34497122549513787
1.1137268495884438,0.053738334528244,0.33476472210149133
0.17070433323316456,0.02171453385605332,0.3387659515956874
0.3975135999766285,-0.6362672517034834,0.34455614944861723
-0.26021306108498987,-0.47713640178321387,0.3478267792964702
1.0950072059862674,0.13931813672144255,0.3258533936601976
0.1542147602497319,0.024474800592458157,0.3385648920704042
0.442414064781025,-0.6090508907752501,0.3401008753860533
-0.25303032852730867,-0.5385948759479142,0.3547177156230161
1.0770676612079457,0.22285941163302536,0.32131553565165516
0.1314745517595167,0.027191992247298347,0.3384015637032978
0.4868201959829279,-0.5932160762195484,0.3453515070617169
-0.24487128654030477,-0.6221001316773249,0.35366688546385516
1.0530964386803863,0.31147294586120244,0.33081752703372297
0.10309032245556599,0.017410645079681764,0.34180581145452
0.5451638785646146,-0.5970683834054256,0.34776354097998585
-0.21452456523179808,-0.7031186286750812,0.35022922430455933
1.0164829651648652,0.4267807767622156,0.33648900235759766
0.05244813492088518,0.011565913910422276,0.34200839937422284
0.6035763525130592,-0.5888042463806651,0.3482018156953945
-0.1373707602066762,-0.7472010881031778,0.33732672097404415
0.579176132808171,0.10047358964521191,0.3477282023557107
-0.0059964577248206585,0.004578371795788211,0.3459543696354676
0.6821219768006832,-0.5770237965775563,0.34021522252167513
-0.02025195372274252,-0.7249881313147721,0.34799767084955063
0.46876793051496646,0.03170762051060466,0.33950697066843843
-0.08625929431082169,-0.007268029162982803,0.34209123743213565
0.7813398415914028,-0.5679453248984281,0.34339868857907974
0.07845618282562461,-0.7066922795848052,0.3445164410272613
0.4199745881982017,0.022271599189833957,0.3431591519625249
-0.22612789231003805,-0.006307689390900734,0.3511472021200245
0.9192789207467953,-0.5429596962654717,0.33462884504422574
0.14300876565764473,-0.7061664689466649,0.35692921963804514
0.3790058139077526,0.003406725481679418,0.3391732356892056
-0.3003294133322095,-0.06538250662674727,0.3565136675397124
1.1491713309515845,-0.5481284817713581,0.3302855184931932
0.1850812298516169,-0.694900850247832,0.34232520813477213
0.33279884627897577,-0.0025045783352375395,0.3478847439571513
-0.31701613990859934,-0.12977068472254805,0.35286690122639347
1.2164013597460945,-0.45676874518123295,0.3347826481590025
0.2208097516918699,-0.6812618289785222,0.34379963616742665
0.30389602540221206,-0.008396044164695776,0.349483538682738
-0.3099275487073325,-0.18143899479429526,0.3440285313696011
1.1886567508434753,-0.3665593963516003,0.3527195650869862
0.2320354939792253,-0.665312909987247,0.3420318867594749
0.2886799270918636,-0.00475322962417335,0.3466489070087037
-0.3077103196621842,-0.19448081630613473,0.34417576558840507
1.1599009330472065,-0.3203459641763508,0.34621916285315757
0.2275191565205543,-0.6701771313934517,0.34448302486191296
0.2760459575007303,-0.01096081684206024,0.3444683309416603
-0.3110666878502959,-0.19736169176844315,0.33110960736494904
1.1485842811396845,-0.30481001778825006,0.36531349547949793
0.22198617605048776,-0.6679158450319644,0.3530446772345164
0.267306079527494,-0.011701316285081309,0.335939163201287
-0.31190931226260377,-0.19810559997115723,0.3439374715802105
1.1465963500900938,-0.29897705163063715,0.33844355446870744
0.23878047408415531,-0.671872161428275,0.3409096792086605
0.25137827533857293,-0.008993973476215444,0.33923536115400516
-0.3107273615238213,-0.22236997474376613,0.3323118439414592
1.1458793167619636,-0.25000295507401044,0.35186697552680835
0.26301971318051653,-0.6769297737950708,0.35378377500350966
0.2284552989905422,-0.014397839925921474,0.3263477061285968
-0.3082906112888385,-0.26356569564587556,0.33417122670946187
1.1417258616633197,-0.18777480235569619,0.3376308020677811
0.2881452131677583,-0.6679569105229226,0.32432585623608173
0.21046507036089412,-0.013647939100099316,0.3355759819736932
-0.3016002603931923,-0.2956662022333631,0.31511146881053
1.1367006754793207,-0.12567788438786937,0.35978125350121726
0.32647584381733363,-0.6644732193704648,0.32848243284435197
0.18309680786745558,-0.017162771393201548,0.32768494330942194
-0.3061943820158992,-0.3549891858015722,0.3120501989714174
1.1186516155268595,-0.039334380983428785,0.3541919535813141
0.37586854525543445,-0.6419549728938463,0.32387319463046127
0.16066924992594733,-0.007518957188914321,0.3328289339155984
-0.2921806140648957,-0.4027039410530707,0.3145853264937806
1.1005152408659828,0.06912839743251115,0.3547537222493614
0.4412680669874749,-0.6171033216726677,0.3250469462613979
0.1282707923189253,-0.011236685755450754,0.3341202881162455
-0.2805062881902216,-0.48798027863751736,0.3280502719452086
1.0628537215402862,0.20590006534492933,0.33566292533619924
0.4989518296891324,-0.5748562625180271,0.33179276712173994
0.08182680725108155,-0.0065979649271367125,0.34248027736307457
-0.2892160534243393,-0.5877362625800961,0.3350321539201819
0.9990449948234964,0.35772877084001375,0.3441613459598914
0.5846737526843331,-0.567058453787908,0.34248965945968307
0.038550717501954934,-0.005960354331557394,0.3397413454931999
-0.2597173470047627,-0.6744048291796245,0.34743197228875283
0.597328914552687,0.15970979193942209,0.33557851769402436
0.6709294087688666,-0.5769121500236443,0.34259412655776905
-0.0007915809806294527,-0.0007257483062506898,0.33757990618771083
-0.20504946130217977,-0.690137956650978,0.3703598590826356
0.4363846147324081,0.05724273842464836,0.32366486224220126
0.7631122736910059,-0.5946624536396949,0.3375575934282418
-0.03569456004203153,-0.00145401805180026,0.331524822194183
-0.144459335749268,-0.6842907571605108,0.36758326487737947
0.3903442366464213,0.0353613776347792,0.3176839278337841
0.8538878171003025,-0.5946024154757796,0.3383641949464519
-0.06983881137133702,-0.0029301086176781455,0.3304903680732006
-0.08750202799556,-0.6756041003924809,0.33930578458284033
0.3666749820957377,0.03334015415949432,0.330070664536324
0.9883581602238807,-0.5997238689987231,0.3260736553884909
-0.11080208870734859,-0.019466167757619418,0.3401003199894559
-0.02784410493225359,-0.6784092366169974,0.33709949840926084
0.3418812372193859,0.0219932170235696,0.33520891513244316
1.124462108477941,-0.5603644969728943,0.3325304360440161
-0.20610194750657373,-0.01239183947019351,0.33933187349982163
0.038282404128330505,-0.6688918116065755,0.33184353183312715
0.32618990709106854,0.03009739005114173,0.3395484460875596
1.2031273913940548,-0.45606038497535906,0.34060653756172354
-0.2940472478384053,-0.043424807732500154,0.3376098673087631
0.10706247139283931,-0.6580776486673665,0.33463022489230854
0.29888204640319926,0.03794908390192667,0.3406334066951896
1.2063410987280707,-0.33520968994387434,0.32675662441443265
-0.311668753803536,-0.10823116902679204,0.3455139872158182
0.17476176002128957,-0.6480871891174846,0.33522648062025073
0.27715388105855,0.0362763289366817,0.3403673663431271
1.1736371091783826,-0.20983965775556682,0.33115948210239615
-0.3071275780908891,-0.18583784926460095,0.3421528494436283
0.23152655502436342,-0.6426277253457933,0.33831436177466506
0.24249624319854388,0.034283318245350525,0.3379903159293725
1.1377483722678918,-0.08719768798039607,0.3718431688400575
-0.2903459160631966,-0.27211654464306195,0.31861986485867483
0.2915651080187799,-0.6363233647094908,0.3467259543939575
0.206532942877216,0.024098622509497875,0.33375176119901145
1.1076879635871868,0.013482651672432067,0.35295986091131787
-0.2835377910397008,-0.3536835770180393,0.3329383681581921
0.34007530397200825,-0.640017178764219,0.34369830500639004
0.16867077513067086,0.009734508454491836,0.3384798330923619
1.0906034278809709,0.10912766514359068,0.3466597854041697
-0.27871241337114305,-0.40298886639607,0.3342185226144243
0.3855377073058468,-0.6232498602096375,0.33591315675315125
0.14450161678208207,0.021129164466284434,0.3405257073195106
1.0696408579763679,0.20409620425109426,0.33785948622855694
-0.27511114264172665,-0.4536657128193553,0.3384227671881863
0.42124592278711404,-0.6050959393947606,0.3375719401465426
0.11016077770081266,0.030898541670900587,0.3385978839340191
1.042072860346341,0.2978027705326809,0.32971697938986383
-0.2761827500267868,-0.5172981728942151,0.34739741333125285
0.4642229096114875,-0.596791673358487,0.3388392266337828
0.07455903597121769,0.033473395910780274,0.34184056611235203
1.0115005165924347,0.36939587927837025,0.35523061867934314
-0.2705099835728348,-0.609255492638436,0.3337930415926368
0.5116317604668053,-0.6072506885232776,0.34419847243859836
0.04323817889915413,0.00640998207787144,0.3407294518886168
0.646228935905221,0.14618533379856052,0.3500437679596534
-0.2506720621210395,-0.6823022053785177,0.3458014610627905
0.5644924353642331,-0.6112951653736229,0.35445260603478296
-0.0013332194019817778,0.0013088750783620262,0.34379343016199765
0.5080007957177521,0.10890658453850782,0.34863009897149044
-0.18307689822217255,-0.6789216552075965,0.3551328366434868
0.6281509094223297,-0.5696815245710047,0.3655749610822763
-0.05280140115146165,0.027446956154674768,0.3415431440378464
0.4454316313447709,0.08850804773407633,0.34704989559249133
-0.08517763458411987,-0.661721114709209,0.36012700269040776
0.7143212054188648,-0.5755529258417638,0.35702086985580544
-0.119299710463878,0.013904482756357694,0.34946229514861066
0.39385092625682944,0.09186072839856474,0.34643033256057726
-0.004700648397191004,-0.6383493077783967,0.3596191690233287
0.8373681612527716,-0.564953142714571,0.34646155645042354
-0.2237415129356588,0.014382793599959615,0.3563171253477139
0.34134280875032197,0.08957148085580013,0.35660568489089167
0.05877890469137187,-0.6255101145058866,0.343303350586364
1.0791697745354862,-0.5702898026999839,0.3268658963178141
-0.32867099087840723,-0.014704417844918216,0.36566356859684634
0.31249591184305914,0.0796971373392909,0.3506452693006893
0.10994415020930975,-0.6143145510155552,0.34360536263080743
1.152699878845183,-0.5072286453003922,0.351292962661547
-0.3563143541703777,-0.06675007931979685,0.34507384149068915
0.29418944248871187,0.07068225632018699,0.3472261158583074
0.1402197406582813,-0.6018572139729896,0.3380614109518843
1.154376257923153,-0.4646298792287649,0.33367768101233625
-0.34091265788172287,-0.12250172525258901,0.3483536657470449
0.29118078309469136,0.0636707827309258,0.3339441025188856
0.15649287920182822,-0.6059059413620149,0.3378401386984769
1.147015196867581,-0.4520996052919982,0.3579932821451521
-0.3349230997745587,-0.15420895544516677,0.32243986206739733
0.2981197326393237,0.06106189740521106,0.3214099685968362
0.1655226784017168,-0.6005039407915556,0.34074033172117724
1.143862019634447,-0.4656702665588238,0.3524456163913277
-0.3306266232581714,-0.17112818310225228,0.31861954576900126
0.31451141149948614,0.060102678314409796,0.3201907341835585
0.16120642787339445,-0.59595498595443,0.33921501208097565
1.134704345532883,-0.5125211378171856,0.25561120057904074
-0.3301317500813019,-0.1667006046543772,0.3771158170706859
0.3421642392971776,0.05992724941416905,0.3189636711944152
0.16436789531511398,-0.597142761892181,0.3391740721920384
1.1308413859321094,-0.5582667137964424,0.2663273507897783
-0.32433644472570833,-0.16128380301029577,0.37123707248308035
0.38131520731350266,0.06152907411930858,0.3137967493273742
0.18325776772720243,-0.5979180402030697,0.3387718176237219
1.121150096183271,-0.5947260703195945,0.2741669296390115
-0.30993450449892224,-0.16146812623233822,0.3652076874103053
0.41999976337330946,0.05375118367196846,0.3111216135704148
0.2080764174438695,-0.6023298081779584,0.3384387800282879
1.0882879172793027,-0.6148916311357662,0.29801705120041716
-0.2976022529322543,-0.1650575103011694,0.35018696440666175
0.4649877364431906,0.056901349390941935,0.3201806099816416
0.24572054129309032,-0.6035531960463869,0.33191477131422503
1.036214846911482,-0.6153929216351198,0.32014303894893253
-0.28853176920769996,-0.1753292599570124,0.33450885779898865
0.5086494332516424,0.056137485173375246,0.31508494970429707
0.27984506023288713,-0.6050994591285346,0.3354383862143097
0.9464962480560587,-0.6050109638747204,0.3350071756573553
-0.28115147332129453,-0.18058935020803074,0.3228266153436597
0.5534260169701414,0.0643156794567672,0.3284884191188483
0.3169781825279611,-0.5998450645614765,0.3313040349904558
0.8437635564960424,-0.5867198445423182,0.34178727746391685
-0.28270613540777634,-0.1858012370202458,0.3144687239758971
0.6027383206960631,0.08501226244693849,0.31443016338862273
0.34456692613540285,-0.5995878571854971,0.3366609355267796
0.7530767089865169,-0.5762290371074352,0.3341864983187583
-0.2837112362128489,-0.18549009162614422,0.32658168579999064
0.6947291101229611,0.28376948198913143,0.3104671826988875
0.37324051301913885,-0.6086949133028026,0.3379150436067733
0.7138948126350885,-0.568630818124942,0.340656654583206
-0.29275266894901353,-0.2067787674946281,0.3156778380575678
0.9374729458710406,1.0823670675230828,0.22136855596090826
0.41460249820048944,-0.5825041234877644,0.3388905211202821
0.719259511970431,-0.5702151402806648,0.3355611289058933
-0.3046320729165648,-0.2495989852629087,0.3221334135668618
0.89378924162358,1.2411437493465967,0.2518324648178415
0.439117472820451,-0.5792614897139896,0.33109373060513436
0.7451749163795922,-0.5753423231325145,0.35234182170409345
-0.3077138833198775,-0.3162760169725687,0.2625987190161925
0.7083927241654222,1.1223455026711546,0.40001647960072856
0.45656600248420726,-0.5879820101955296,0.3121296149476165
0.9376433502891841,-0.5873449648573631,0.3787642876200805
-0.3116223467412613,-0.3948220664225656,0.21174587006890128
0.4972904337192173,0.14665572437423813,0.31062855159293973
0.4871804263048959,-0.5842707009677977,0.3083158720224264
1.1696747125594578,-0.5298832245032612,0.3648450824688483
-0.3001695628801646,-0.5091683547395925,0.24338027222305667
0.4223344333774326,0.06373196668918812,0.2698054176423896
0.47820028826694444,-0.5740687936729093,0.30095339252029335
1.1786397596943696,-0.4684006206502416,0.30289866281532013
-0.3096003253199323,-0.5991790361491129,0.29426990877849324
0.388365422852748,0.05636741363759956,0.2912352237861824
0.4618353048870807,-0.5673081263566477,0.29510785167243136
1.1691838404189707,-0.4520957955862616,0.24095835380453196
-0.3025195642461922,-0.6247712420133591,0.3526198014853238
0.3600686273521094,0.061436185912061236,0.33287732699565425
0.4605389731200147,-0.5627345958858777,0.28520611166577853
1.1687290285552001,-0.4130158135301314,0.282940809782676
-0.24591058586263226,-0.6414661497613352,0.2926467458846826
0.3332422878823133,0.06513369491302823,0.28930318644904285
0.4709177061391054,-0.5627981651319469,0.27530110273713854
1.1672209652351002,-0.36514931270911527,0.1867307775247209
-0.2065562401908161,-0.6702395809233077,0.3610297106630257
0.32026104759222684,0.06176998506933329,0.2632846370042776
0.4862182434776086,-0.5614919105561783,0.2685589706261627
1.1715581605777272,-0.33749430983888173,0.15993451250508817
-0.07874814098464467,-0.6687693905155778,0.3544980578985444
0.31333147232739067,0.06881754551518304,0.2697746358421628
0.5215998238007138,-0.5563851141731992,0.2645854072716377
1.1779341383247175,-0.2898666164411686,0.21074157805261046
0.1479828557334168,-0.633656326622771,0.293988143518007
0.31984044099640374,0.07207592033745447,0.2689568576765409
0.5631615094677686,-0.5543212542865641,0.27128865119233625
1.179661986384652,-0.25379440377544216,0.24453469665994432
0.2751849727336102,-0.6049939561650916,0.2822335849486378
0.33512608632620056,0.07887351526255926,0.2738492422793441
0.613897964961878,-0.5598380048985168,0.2858005474575382
1.1785400983471876,-0.22610144923548386,0.28538507151176823
0.3481947088725773,-0.5885387031719916,0.28405423071694474
0.3678538650643822,0.08368278437877064,0.29014507867522454
0.6672165828322268,-0.563180391424045,0.3080055098275042
1.183374275352615,-0.2095388560329976,0.3128943643243209
0.4157718713459886,-0.5650623641287105,0.3026189298047753
0.4033342283949481,0.08987651004988173,0.31461771386724957
0.7088880567535518,-0.5530942081502657,0.32763744937099637
1.1893017855983414,-0.20159162294072674,0.3415867048513312
0.45003286728455866,-0.55336146469433,0.31921608018829745
0.44127155420743863,0.09724172299594147,0.3346269486061434
0.7549239999421334,-0.5563032470405594,0.3458570610113355
1.1915906924098858,-0.20008661576453346,0.35850266465976854
0.46714991264551503,-0.5481340705613161,0.33694980350696246
0.47754339792159206,0.09739211998034192,0.3448402770818495
0.7919028282473889,-0.5557414429182406,0.35966247599576856
1.1930919174410968,-0.20023364261988635,0.37494379265856
0.4774462067703172,-0.5453194371970728,0.3468010994763761
0.49541574669516,0.09423402316972851,0.3306402203591734
0.8328826624030206,-0.5598711435275416,0.36847554383552716
1.1923539286834213,-0.18540469011724306,0.4025384854154591
0.4865736419178979,-0.553524044868903,0.33352162174869376
0.492395966120656,0.0856298388496794,0.32811566005939774
0.8706471232499646,-0.5630028518996393,0.36941571601139056
1.1884786801230356,-0.1616289325175312,0.39372781784329314
0.4973660570222191,-0.5683442362757769,0.33574502833169123
0.4759388933406768,0.07010904879454893,0.33088355343277764
0.8945364469497668,-0.5545232109613626,0.37112815785012165
1.1820652044511601,-0.13612068134824878,0.37554820570646785
0.5251695600137356,-0.5778978967849788,0.3513613448082453
0.4362727526456255,0.048505566337312345,0.3250362695546492
0.9106886907882437,-0.558029245322073,0.3635854573745412
1.167664888686255,-0.10772584763052634,0.36605198151402946
0.5556706545470447,-0.5876756128277422,0.3461703249558203
0.3962022681799035,0.02937033656043908,0.3260444611940895
0.9714974606494213,-0.5542700137621619,0.35431782315852395
1.174870995107135,-0.044312654728420386,0.3335164422065568
0.616928849142866,-0.5932830877409071,0.3540353465357242
0.3165989913031364,-0.007359680809652602,0.3282707915390783
1.0299956006934983,-0.5374407626285431,0.34827890009661533
1.1728137232191793,0.0653040545675142,0.3389157157274475
0.6812760192643823,-0.5960094977383159,0.34448986386778635
0.1767746906779235,-0.04769846906948927,0.31350141580435925
1.1036688120808007,-0.5247932840240178,0.3466197680020869
1.1241814761713758,0.19231661926582788,0.34016862736375386
0.723867318052124,-0.5857274204624549,0.335580920685131
-0.07728971158061937,-0.06983316307263254,0.30525956741919125
1.2393236713094595,-0.5111318715486974,0.3385108815601302
1.088549133225941,0.409169215736331,0.35127596705518205
0.7591473602500614,-0.5757994948353357,0.32208502402253253
-0.2623220219955633,-0.11520582090839315,0.3174557723245562
1.2545013174621615,-0.4753571401488009,0.31309869466753726
1.1215560565423592,0.8687582355587704,0.3637288673460868
0.7772130745975239,-0.5807890203570164,0.3060949914365943
-0.259820149937005,-0.14016771828345168,0.32639689516123277
1.2376961484074154,-0.4369313349698463,0.29315096301854293
1.1735655229099544,1.3904859567446735,0.2453670241261468
0.7873153391895491,-0.565729444232843,0.3090623972259668
-0.23527182380866551,-0.12707749335804638,0.34943936645813733
1.2305358118240681,-0.4167755073433048,0.27528388106580665
1.1814258140943732,1.406339270235967,0.29218701376575545
0.7936245753575388,-0.5567194737779257,0.29558801138045354
-0.2333863264786753,-0.11625406949930195,0.36408183881606804
1.2352633028272142,-0.38472913792092844,0.2691850318325007
1.1561428819923827,1.4035455692500858,0.27547237621174697
0.8014619892975168,-0.544308525360438,0.2970568721797074
-0.233231798790285,-0.09039359305770853,0.3594120286707221
1.230385862178927,-0.3462271797493853,0.2786870733007421
1.1533780410806689,1.4406403635583613,0.3162127733346708
0.80783205575115,-0.5302060913877631,0.297154361833572
-0.22840454828092516,-0.05354220841248111,0.35118708591083736
1.2410587377345188,-0.3046644801746178,0.2905302175634098
1.1576493192630317,1.456546129987566,0.300779879138151
0.819977576947441,-0.5208202203440678,0.3067891234922935
-0.22582292274368476,-0.014509541738602,0.3159058427031288
1.2446603802949625,-0.25487718946295407,0.3144060387122508
1.1570631011237873,1.4718541197392934,0.3072854697391765
0.8336271964391716,-0.5068665013164153,0.3161691271929056
-0.21213459393391143,0.031375375840621,0.2959424215635863
1.2412678864942548,-0.21101639635467312,0.3352292979637132
1.1713956158511003,1.4713814081300458,0.3186313083214031
0.8419922075293601,-0.5022989577229098,0.3275872020547474
-0.20255734713411822,0.09610110313635761,0.29892039373733725
1.2292631130566667,-0.18048623551938248,0.34442439218125265
1.2114675117917633,1.428648652123666,0.29674599093275067
0.8370656624841911,-0.5018217281165561,0.34361139662011064
-0.1597617437904877,0.17437365582982622,0.2823697765962412
1.2242787341074741,-0.14922127187679118,0.3505407257060395
1.2457754227578963,1.287581390565514,0.32602539222330923
0.8267382503017047,-0.5019679901173876,0.3388652597211625
-0.06570196487616431,0.2297416836409965,0.2825383910877911
1.2196741375029168,-0.12812238466235334,0.3506382005599018
1.1822070156586055,0.8442174508778961,0.36045955496061444
0.809764448428817,-0.5006600154397263,0.32294776073030224
0.3427507579577431,0.147242579905046,0.26154712187482443
1.2238676322242148,-0.0995509559857076,0.36627058880283475
1.1528137444570192,0.7373819659243105,0.37720810480631756
0.8136421786603716,-0.5041079333959887,0.3051908926919632
0.4904269690197953,0.10288210694416407,0.28277478973946785
1.2277936189014431,-0.06508297655049702,0.3472662959162291
1.139626119923084,0.798429614051267,0.3560695905342297
0.8424528992747743,-0.5266108723100268,0.3028080994460418
0.5006858964811416,0.06305425177377197,0.27710117701137094
1.2292669235053153,-0.037790268643491366,0.33746730793105495
1.155163145434342,1.320181892393029,0.32180716982788454
0.8972291452156271,-0.5480802157500141,0.313885881543532
0.21993572341797096,0.027225825282758517,0.29119272247732414
1.22892797945656,-0.01252556959093684,0.3125106459164019
1.0450353939324055,1.5112891537183515,0.2027417704776908
0.9606522541440918,-0.5540715804670837,0.3453900210960107
-0.16565595160259194,-0.08074694422943987,0.37619347317395185
1.2189750448830738,0.0030171067891244657,0.2874208009821572
0.8947587778718844,1.5335058653929465,0.2289573765814244
1.027618217766297,-0.557949853012999,0.3277771477712654
-0.21292717504467906,-0.2382117653901051,0.4299541822063735
1.196975919633144,0.029432078136986062,0.27899380117895306
0.6971640753424226,1.5110837611345973,0.3216717882103683
1.0845175679170664,-0.544567231665053,0.2948339866603706
-0.19296705125883218,-0.35010222236370364,0.3899844064836309
1.1849302007895788,0.08202743666612487,0.28336770711527687
0.5565590347547407,1.360446296550919,0.3182947222594354
1.142971206977111,-0.5158765773437382,0.2920413954391035
-0.20355905344464742,-0.40070293002917934,0.3428910436958185
1.179753905321078,0.12818486666407597,0.2876917989567045
0.6663079075167008,0.838673076257621,0.2957361365444982
1.1780859046497052,-0.4998230509839997,0.2963678087012863
-0.22813350361128326,-0.3904851857812693,0.3391978804789954
1.181895652676424,0.16979482876173047,0.291995298745874
0.6841274158478505,0.775811524116631,0.30202262918316525
1.1895167637925268,-0.4964777432352204,0.29726582717515815
-0.25547751109700223,-0.3275134483060234,0.3075518933007541
1.1690145747909813,0.19991631878682092,0.30648510986928
0.6909050648925347,0.8172945404679336,0.3125206660602464
1.1762987953300417,-0.4936881227626476,0.301503263425613
-0.2759800786657003,-0.22141322825799958,0.3137833425049919
1.1548762154849468,0.21865297843186482,0.31278373304622037
0.6853163037004326,0.9698072574447858,0.31364301501267045
1.135670438609353,-0.4945026660137294,0.31237761730645314
-0.2722715455598579,-0.12223204163727464,0.3059876321517267
1.1431110093158399,0.23952898376262002,0.3244858443669535
0.6276727262686621,1.3542898128046146,0.34947925155731085
1.1000721598534535,-0.49171897725966995,0.3055893648615663
-0.25763209780113305,-0.059824659354466736,0.30535657913740877
1.1353084813973875,0.26687752878636006,0.33261869728852894
0.6197406200101439,1.4859562008141696,0.36074291659316665
1.08201355833418,-0.4808257643601297,0.3106087769438053
0.3434885899636324,0.11002675113564553,0.3248960210659364
1.1400816496049095,0.299752445350147,0.33920190398779476
0.6141642322960263,1.4962208231077303,0.35984872450067307
1.0834489498257407,-0.47121073168198413,0.32093945682852143
0.6301597085392416,0.20598090716475076,0.33739209061390596
1.142323682635359,0.33425657003404896,0.34156557279471783
0.602352859659607,1.506131642983441,0.3508026575483417
1.0954239005815352,-0.4619651475098657,0.3329989541664387
0.6461947975383415,0.23512530677917765,0.34149753322837506
1.141356347308165,0.3653517139179155,0.34184755220277663
0.5983542944085631,1.4943208572549063,0.3308273915978171
1.113123811260223,-0.4630419454731477,0.34869364517504553
0.6477247645299478,0.26344500852730013,0.3392715048715766
1.1390057725028504,0.39262458330421596,0.33484333757753926
0.6033474788297384,1.4977321312144143,0.33361860449680925
1.1193672981640745,-0.46454558750070696,0.33915942468329047
0.6442014841511421,0.29300539156954164,0.3374595418834483
1.141618624723116,0.4222929449349903,0.3299152188536881
0.6070347465157901,1.5157328955590914,0.30936889217522
1.1212000292550208,-0.46004458953869465,0.3506168182607161
0.643973807164639,0.3224670920975166,0.33107799371824936
1.134645037238879,0.45000601090027076,0.3261213650195471
0.6088845815984847,1.5221129582182351,0.31257009949339515
1.1240599723061908,-0.45880366021883134,0.3403669987632631
0.6397401487148018,0.3516649480261268,0.3261997523725148
1.1334346249540976,0.4835035695163692,0.32388847256254716
0.6023124290070332,1.522582643228645,0.3124914753436547
1.1289644217385577,-0.4491724905253146,0.3348604508861311
0.6368506124066655,0.37468702093320805,0.320728331653097
1.1242814292211374,0.5141838665124852,0.31981789603860444
0.5842915050327979,1.5141166719549268,0.30635437587932196
1.1453064376690145,-0.44601881626560524,0.3318908826419458
0.6405846845304457,0.4013164310776801,0.3168766254214264
1.123103998979381,0.5468755097067742,0.3149619942875885
0.5768399160302021,1.48493142178249,0.2980310315420814
1.1588322624651388,-0.443888118512377,0.3321644413901292
0.6355938431854844,0.42958059626969125,0.3129766860982786
1.1243715206478475,0.5751531809826397,0.3107395909975674
0.5812411603783367,1.4807460224088658,0.3015734952591789
1.1541735614484667,-0.44263327187858337,0.32181093853468484
0.6343770660110112,0.4610830556937657,0.3067953960253766
1.1209724999794735,0.5998499981555012,0.30894465656454817
0.5851891158618431,1.5014697036165787,0.3027744031062596
1.1382944787126934,-0.43818574847768366,0.31278363617535515
0.6319649921961449,0.4909761192746252,0.30223260157263276
1.1165448152467126,0.6258463394025331,0.3034237417533863
0.5837444197580053,1.5144371612291545,0.31591733741543465
1.1280670119557392,-0.44104218023029584,0.2892066513805596
0.635872429862741,0.5190128616059025,0.30058705178531075
1.116733495957429,0.6523205722901879,0.29894711691015147
0.5830174657981526,1.510861985563801,0.31232025585241535
1.122536438442897,-0.43558311658375115,0.2864215593183288
0.6340924033377517,0.5498459961747809,0.2956206325492668
1.1188100010538713,0.6801969637021267,0.30346127850472315
0.5864238521555871,1.5196979255580194,0.30794720140693616
1.1115358086294114,-0.4317943544967664,0.28854838559757867
0.6413318225042041,0.5764022264146877,0.28196736489137414
1.1176017922780428,0.7046833400139331,0.3236311595500982
0.5869398209366705,1.5259301947895625,0.2969389192315211
1.1130787400978184,-0.4284863466507687,0.3000726531628837
0.6442760243096477,0.5987417019617858,0.2718352502803967
1.1209052784709068,0.7141730703640891,0.3313008139828759
0.5982370688534473,1.5319814647373204,0.3910701434751557
1.1021273426599376,-0.4383758493651242,0.1770335888256757
0.6576635462625784,0.6136385382776894,0.275784945393432
1.144325373987865,0.7213390645827715,0.31529269233870433
0.6327201749133836,1.5837201617795007,0.34313085818571754
1.0938288949286337,-0.45769468902587107,0.22815192430137798
0.6738544300295188,0.6255337878381747,0.2799656874179069
1.151479761032964,0.7176643241518478,0.3035242837768702
0.677450107997305,1.6142482405960696,0.3301732765614643
1.082676896524967,-0.46373080389599486,0.24098056098780485
0.6824403421289406,0.6295410224204712,0.28444456468523943
1.1617941095884408,0.7087903819814775,0.2960852103526333
0.7340443046729793,1.629631358618436,0.3271335620170431
1.0823268811466278,-0.46504878354185486,0.2456513617263088
0.6898471239010836,0.6302680440743357,0.2934708379816801
1.1641022752325227,0.7100705745677157,0.2848332710530316
0.7583605667188242,1.6347429362615578,0.24918653919838044
1.1117195944084834,-0.45583009192441604,0.33593797360464867
0.6887399621392604,0.6178138540447148,0.30484502860223056
1.1577873918008288,0.7131681491519954,0.2863229571071298
0.7496223038544342,1.6256481017576698,0.18191224369869413
1.1788012099114817,-0.4381823629094348,0.4254143580789176
0.6808857769968717,0.5895092167580354,0.30895477138514266
1.1462575162093853,0.7314158722506231,0.28749211849160955
0.6718580796919378,1.6171621175990276,0.2141179848808332
1.297835184564745,-0.40904894452358964,0.3902014761768465
0.6785599069716814,0.5557746327271245,0.30682064976229795
1.132782702203089,0.7640500920871522,0.28941417623845306
0.5583359531640478,1.5507731739968404,0.2278453130932025
1.4240122125506145,-0.32481457683644854,0.37554840330666217
0.6699526827467241,0.511484400499774,0.2992791461375673
1.1140376799529743,0.7876299550213525,0.29145942911616934
0.5607670673664882,1.307455996075995,0.27016350721475174
1.3424933654808044,0.05170095715032741,0.3189823258125207
0.6627390246792371,0.4677426297962442,0.29222432482589267
1.107728644217778,0.8158936818862168,0.29251317009533656
0.5888532876505971,1.1285609122778975,0.2880896662266507
1.1890083936748284,0.3614658983633204,0.295511818235187
0.6644124786057796,0.42805176875131684,0.2797711239519367
1.0926743400437042,0.837902362975492,0.29599667330517
0.6133101111136687,1.0061520054545947,0.2926809791143844
1.1699850103164897,0.42467968451142457,0.287389800182226
0.6686174097589668,0.3896635907750345,0.279093672674547
1.0858524673902006,0.8758213507549477,0.3002251443406188
0.6267868689232158,0.9259183478885061,0.2946513500898939
1.1641558527186893,0.4649770686115531,0.28901998141556984
0.6845661675141064,0.34577533255660736,0.28136793036981206
1.076451172207422,0.9226307771758329,0.3108287367008604
0.6325649038136717,0.8689090164327526,0.301666141318836
1.1620803116927405,0.5094991914116891,0.295500875956197
0.6962239969182884,0.2882249410722899,0.29392029270433845
1.072234278371755,0.992923081981995,0.31436041109172647
0.6320004472683692,0.8390983125466039,0.3082682636719264
1.1596363849864564,0.557711484118725,0.30319184607146304
0.6864086673842545,0.12276870284220753,0.2956354702876546
1.0624642968378932,1.0696458840361116,0.3147866397170696
0.6332444012039091,0.8097005251417284,0.3120132697053061
1.1555564002539738,0.6024404400538694,0.30321368007289035
0.5933134812759797,-0.477944856397845,0.3051243809248468
1.0430449585653399,1.1666691375664366,0.30850213046898434
0.6383057813135795,0.7859523508788786,0.30438791950350436
1.148537570618749,0.6464139175455624,0.31017987990812673
0.7247689978257412,-0.4545832219805026,0.32007802918814177
1.0434904511179395,1.4518565797404472,0.30025587931750236
0.6407087018479762,0.7709975520607315,0.30843187357266316
1.1437245599227628,0.686891295420772,0.307343701114156
0.8253038804576106,-0.42742585343509076,0.3367594824063502
1.0068061929412282,1.6379086340311029,0.2826635911958746
0.6396287003196353,0.7609605449417267,0.3050184106899343
1.1377092565780615,0.7172468872378386,0.3072264884611961
0.8990140080488469,-0.4147459225529251,0.3352041626507983
0.9528453568708118,1.6667315127875642,0.2765281705212457
0.6373682978729567,0.7572051414243413,0.3115139539326921
1.1329487661357498,0.7439513786906063,0.29601113967758
0.9816926530361336,-0.40743271077170173,0.29643523065355315
0.8909629188405426,1.6725776954493523,0.30342274415430615
0.639019182811079,0.7487106971909966,0.3048799348115556
1.1284939769366298,0.7700869817684324,0.2972983536166935
1.0977388532895858,-0.3861996855528238,0.33331948955260543
0.7894310476319064,1.6647631478926477,0.26911082350298715
0.6357115197735042,0.7298701967101308,0.2942201162894101
1.1192343156723195,0.8027024255689202,0.2989288619454691
1.2443965423102699,-0.36073278559563127,0.3278156535246189
0.6776124372021292,1.6428198090899744,0.2693196833613534
0.6397417901703656,0.700324021548906,0.2962548752251043
1.115101742300789,0.8347124835162348,0.2933125631041028
1.3516705735317158,-0.3220397262887347,0.3765937928890674
0.5627663798224154,1.6222357017305287,0.2350585211424516
0.6281226135185172,0.6659978830599501,0.3006923299698715
1.1008362848477085,0.8572850235999748,0.29354986523435916
1.3736249931722322,-0.15162976324598565,0.31096695718215733
0.504527692072301,1.571460592366003,0.2879559246593369
0.6335429829966318,0.6365833489135704,0.3090413315202793
1.0940832303018444,0.8686369071574518,0.2914394362130391
1.1943143778293597,0.3006229340717726,0.29652029444553685
0.4731508589928118,1.466587407399493,0.30606105106647546
0.6314365457412188,0.5909547495578713,0.29751178841975995
1.091540274003573,0.8754967756240213,0.3021372225888135
1.1743016722549915,0.40617491350833923,0.29299674863279224
0.5241910529253242,1.256962766468659,0.3166020846813577
0.6352955104134759,0.5418658629824972,0.2941472822826163
1.0834890809975444,0.8839614355960574,0.3079001905315672
1.1619348897292954,0.4702228534272688,0.3021593454680318
0.5423115020709789,1.1311954688277508,0.3064089522119725
0.6419631035953269,0.4913568235399113,0.2951810267644669
1.0788897802056503,0.9008581830352795,0.3094889210086583
1.1540129003580235,0.5228419145099126,0.3090173039590628
0.5600647979758394,1.0344956707531932,0.29942119022776
0.6434866159393213,0.43731958285660455,0.3052965908263176
1.0696840177043037,0.932056361681423,0.30475399814194604
1.1464104268762423,0.5634866370770948,0.31337581512999807
0.5998713960042437,0.9509239992963125,0.30402819029202666
0.6479597328556606,0.3824129745387802,0.3056794286167626
1.0660067322248667,0.9722708793768683,0.31145510333264886
1.12661389884684,0.6122058124436164,0.3158704413233195
0.6063787482838312,0.9150869995387688,0.3111402592427733
0.6387316706560439,0.3327459473356632,0.3176354369122096
1.054357592039768,1.046528607655362,0.31089694295110104
1.1321637873905757,0.6356996208876635,0.32167236313113295
0.6123136423766988,0.8716962838469545,0.3115529856240977
0.6269221180273791,0.17885198408952596,0.3310046881923033
1.0413776868272107,1.090837207112298,0.3083433890478873
1.1275311774681278,0.6670051950965681,0.3207516758692184
0.6175294731322178,0.8382275728438867,0.31573580774676896
0.4945505211903378,-0.41045393231188987,0.33472728112775285
1.0246213190943558,1.1677580853493563,0.31243879712781647
1.127865861302287,0.6927612161365782,0.31516385473462744
0.6327400357430027,0.8018418764083579,0.3160729305894417
0.6338301169387635,-0.42503296777558863,0.3304231372640326
1.0124262383315006,1.293626568353761,0.30864296880681374
1.1338691793179851,0.713188529570059,0.31407177058429975
0.647364858528389,0.7713332714145574,0.3083503329249146
0.7683710914535329,-0.41074686994077503,0.27307950919448065
1.0045810534616346,1.5721438223469053,0.3390594780260549
1.132608132067487,0.7239028391305614,0.31132300149232667
0.6568751448730021,0.7395919065478433,0.30849845576103196
0.8711330485018833,-0.40808557381168353,0.3143252737746711
0.9397049182356532,1.669768247029493,0.30642603982844857
1.124296264298531,0.7376014989906495,0.3103919905585971
0.6509661408478491,0.7139304422678558,0.3017736782070674
0.959238823562434,-0.3999461301643923,0.2901575481053636
0.8543148581424654,1.6872026964068363,0.3201698326384186
1.1231386218410397,0.7494865729676208,0.30269020413874254
0.6583259966347037,0.6798578757450575,0.3037236313895336
1.0717030914053272,-0.39874942765833565,0.31424325894279914
0.7633806191483448,1.6591819093925078,0.2938259847498431
1.120818072928526,0.7718312683366563,0.29628154155842057
0.6563369796181742,0.6509552996807745,0.3030869922211249
1.1869187922244182,-0.393756267410188,0.32728785414416073
0.6549692232899322,1.647448151468459,0.27615883634898747
1.1209471038557148,0.7786997789742512,0.28967285455379843
0.666210084071019,0.6073326095348133,0.29627104185396375
1.2984758963621785,-0.3640789979343644,0.3012138631078649
0.5538760971898439,1.6111807859318212,0.28569209409052704
1.1184850724534239,0.7986923239874273,0.2826511176119975
0.665660427003095,0.5776702530521584,0.2933788681809191
1.3439774825108697,-0.22006269390068822,0.32191161346049957
0.4804053725217674,1.5460004722165515,0.2559335554948338
1.117468231147374,0.8299663228178441,0.2857427982651074
0.6737677661863408,0.543877838086232,0.2775405853116926
1.2425024795375488,0.1562296460989906,0.2845907681704546
0.45359135404146017,1.3799580800076767,0.27796082760598106
1.1075027148660537,0.8579864559401238,0.29151594398458214
0.688610936979616,0.5059929003243756,0.2609510094333277
1.189311743797538,0.34557015925456364,0.2843870116421082
0.5256287187656074,1.1369544466531263,0.26636613643765067
1.095852637554184,0.8800432158287029,0.2841141065969548
0.6895765480565748,0.43353434216136955,0.2644783015750066
1.177990850490561,0.4251770947893215,0.28446893924079714
0.5810158703219342,0.96928033041499,0.26357535088585654
1.0830018783074564,0.9373983985089009,0.28199208806539916
0.6955039246988821,0.3847875594175501,0.2724214836999216
1.1710645694788406,0.48477388609489264,0.28210691678481614
0.6193480144466293,0.8718083178107806,0.27266278793410237
1.05857000034884,1.0143367843084838,0.283201236820612
0.701705103922672,0.32865041698116304,0.27993759465226953
1.160348759703311,0.5385885762957715,0.2886534581071916
0.6247330707117211,0.8174145585844379,0.274945602446117
1.035097115646579,1.127679033017596,0.2843815685329883
0.7008250241366025,0.21709561188855414,0.2844263175593675
1.1560332927574026,0.5836809235706356,0.28280106736180244
0.6256494792342393,0.7783831739200809,0.28580840197708307
1.011456150192188,1.3356611883735408,0.28530392940294147
0.6035038207207162,-0.41030926252784394,0.2886328118001777
1.145968004384412,0.6243829829298774,0.2762003288728459
0.6311708313774921,0.7447027780830713,0.2948555575869795
0.9678512950303039,1.6269402903893704,0.3292017416561497
0.7101175788607883,-0.45630930973684336,0.2406272807578562
1.141073951631494,0.665399908890945,0.2857275425503675
0.6399080590798008,0.7270992861664713,0.29286441768426485
0.8776943663273397,1.6653068616251776,0.29686723480898786
0.819754788198065,-0.4458784090024954,0.28771527485716564
1.143928632747805,0.6886729442041893,0.2861198292387781
0.6442403393881553,0.7023379967843685,0.29729461412715147
0.8029322281146523,1.6541051914109313,0.2870327694898965
0.8997891703256122,-0.42255871822359614,0.30510869732175794
1.1421030445342413,0.7128742530339887,0.2899444582318015
0.6547110379399168,0.6902197345777997,0.2988778059512322
0.7248899867523083,1.6381789392292216,0.2995787329951279
0.9937119820344454,-0.4193305615518379,0.29578544310293436
1.1416308041255019,0.7325522950500251,0.29022606023011693
0.6569152016369924,0.6691990425311733,0.30280183453963244
0.6516290561423194,1.630332777689175,0.29468272872972073
1.0898423384636267,-0.40501341101349464,0.3023646120081611
1.1400297055384518,0.7585955481406996,0.29459168706387034
0.6590829086112062,0.6550697658290277,0.300640730143477
0.5985346136898689,1.616694657901606,0.2875523806487896
1.1736792400037679,-0.40601306956449723,0.3092574047482271
1.142200407044152,0.7795577608688534,0.3010179204757789
0.6584332610977058,0.6419350715393561,0.2948256765734116
0.588127634719136,1.5966119208534977,0.2835415988792356
1.2101813844694242,-0.4078015325859805,0.3178467018878255
1.13926193878005,0.7856381645121777,0.298120536184163
0.6569494058159104,0.6359790162885334,0.2994471479166937
0.5884336864102865,1.586033138732303,0.292031099611517
1.225958300372637,-0.38958808248168464,0.3081294498719788
1.1391237140586945,0.79081848945083,0.3078473892124252
0.6549881601461227,0.6344620756428034,0.29214906768238535
0.545729519342578,1.5702997974323476,0.2958883699088536
1.2912491395082089,-0.36077353942988943,0.303389277043263
1.135240636715455,0.8095859003571501,0.30303044876924545
0.6604528962318483,0.6262597933288054,0.2960204581627367
0.49038204981375066,1.5021017394989165,0.3122462287401466
1.3746382624119329,-0.29037031476598074,0.27854333330223235
1.1355989891382743,0.8313231545050358,0.30559858838423887
0.6630684997832843,0.5985079152811444,0.2900743809952636
0.5180925277476486,1.3089263442487171,0.3040998777070329
1.3403170471851242,0.0021470709168913693,0.289581943068901
1.1294353739432368,0.8536328854273265,0.2934326025192496
0.6792379276842596,0.5702834170506217,0.3011357286725799
0.5731967790591664,1.1232643303213203,0.28002908450782515
1.2264301046683197,0.2944364483062042,0.3183248324172596
1.1234799909407693,0.877387136582839,0.2970229751911334
0.685141105874481,0.5321326147896992,0.3017491808821236
0.5956432614325842,1.0381867997028225,0.3078973255071677
1.196833226467491,0.4122071949760183,0.2958906437257014
1.1249528777637134,0.914373809519005,0.300571104029843
0.6915078197139055,0.49805409508617804,0.3026392014086086
0.6238245599810153,0.9592794707211174,0.2850874248103528
1.1854290732564177,0.4888432196425859,0.3091520116523314
1.1189942778491484,0.9514384339597302,0.30282068872030393
0.6942252280269464,0.44379835460517564,0.29201309203810116
0.6386222664382211,0.9011108039957852,0.28811965260510763
1.1793756934636896,0.5479888189469849,0.3024930598353352
1.1161792454641977,0.9976111069685043,0.2879669772752803
0.7162872880360227,0.38592146747255657,0.30479574186393593
0.653512293474834,0.8526950061499147,0.288773304732809
1.1663821059074557,0.5933126769908438,0.30639042184495
1.1142741985042763,1.0633332256457286,0.2901901185075859
0.7270952432720394,0.2989893699747753,0.3080766196560595
0.6546409143693774,0.8250746065244248,0.2982897979743936
1.1658517932354404,0.6362663207394044,0.3046039525424724
1.1060613763453915,1.1667526226109242,0.29284004269953323
0.7303429536519833,0.1501529503864879,0.3132550685860188
0.6626006773930933,0.7849952649612472,0.3045247274351933
1.16127664858198,0.6563952311437484,0.3075754750416937
1.127818102321527,1.4395335530364293,0.29990120209548654
0.6310600348970883,-0.4863613503162545,0.31667152376483554
0.6645727929389362,0.7664071328553986,0.3070472360134408
1.1502754673265367,0.6819004567970159,0.3077778482882303
1.0902031139055828,1.6200834404760172,0.30781644408476966
0.7268081302327792,-0.4685389214050111,0.30697069473684646
0.6648373710503321,0.7596507744186862,0.3116424807394129
1.144230013539147,0.7012619267377778,0.3037407850931034
1.0423217470110384,1.6575225821033346,0.31917659453323033
0.7861944871932479,-0.44174015810321055,0.2923479837093763
0.6697934361716695,0.7593057945309942,0.32254617573032396
1.1425290068132576,0.7178699295846335,0.2853958144088098
1.010023071577944,1.666034580415581,0.30929083569028687
0.8251648025171199,-0.428764894738767,0.2934295856480015
0.6716280592705677,0.7705422869263715,0.3188380986594244
1.142229168512269,0.7373007344753687,0.28479995577342937
0.9938399170003411,1.673057226613173,0.3070354557156729
0.8454075893044745,-0.41261150625262033,0.2917128958517445
0.6761990333141792,0.7911572116612149,0.32121657304730344
1.145151452209292,0.7629482717137893,0.28761769628832273
0.9851604442874137,1.6792003740216677,0.29923502819089026
0.8605803780931288,-0.4020567859764206,0.3078048043675783
0.6778167334427021,0.8213006443540508,0.30914828729838006
1.1428160215664995,0.7913162947037754,0.3034385744849739
0.9906566568334416,1.6799426488935865,0.3025839614987306
0.8574253601609663,-0.3877537284690773,0.31065320113373557
0.6752195436978612,0.8604200314481488,0.30882374913732014
1.1422721307683412,0.8177485621205471,0.3102473418443131
1.0153196494756762,1.681779717739294,0.3228659635506813
0.8270115861159896,-0.38038852173208526,0.2905669637327816
0.683182229827642,0.8947589487229851,0.31164466376321964
1.155275859832914,0.8423542273203268,0.31416452152805935
1.0341849603009243,1.682733730121449,0.32650491545502736
0.8052454294975192,-0.3813295476932761,0.29246851711075467
0.6798125840098688,0.9272554990994823,0.3127759408770907
1.139923847491089,0.8756514462009529,0.31468563775381886
1.0398822451593799,1.6887807855155406,0.3257017781272342
0.8082037677745622,-0.3780469167156164,0.29490677193257636
0.6805136078577527,0.9537300458479288,0.3172485055958537
1.1425374594875255,0.9012538541208609,0.3195310101443345
1.0458683307433903,1.6891782939718183,0.31327348400337396
0.8105042070478181,-0.3824442574031226,0.32772111051418795
0.6773000912563262,0.9764016211074192,0.2964104449539891
1.1351662829864093,0.9298018398734424,0.33679622041436874
1.0437626823149626,1.6949109881014328,0.31115693255113097
0.8298582231581073,-0.3808826061307913,0.3410707503829981
0.6639392880771282,0.9754054446806583,0.29731023018876285
1.132718161284578,0.9520915554936669,0.3366018400479983
1.0065057574194647,1.696084551722222,0.30596116979673205
