0.12545370960356106,0.907855386845567,0.28643097591698624
0.1432614078856403,-0.7809920466089048,0.3005104786119896
0.141957293564488,1.1362032787466225,0.2897802138522951
0.16344924890184503,-0.7686070606764489,0.3059253890678623
0.17042008591927477,1.036050822333319,0.3005572910972747
0.1908541544619241,-0.7618255754592724,0.30574449681235305
0.1974477867683089,1.0568119871781763,0.3089283365263284
0.21869874661486227,-0.7650638653316664,0.30804813931278213
0.23108161168648247,1.1191682947771382,0.3161671161168095
0.2469125899133315,-0.7637550622282606,0.31000174736066194
0.2634359938265759,1.1532437454132591,0.3214579733998701
0.2694430293043768,-0.7637431463138499,0.31769333912739095
0.301423097875422,1.6101283843594334,0.3290307417259852
0.29796727345236407,-0.7578582521230522,0.3218650793055786
0.32707432894146465,-0.7795555616814469,0.3227762164744221
0.3663614474504758,1.7004098671062042,0.3292869735526526
0.3564388824796152,-0.8105703955951826,0.3284727079486978
0.39965154317479795,1.6365021562826694,0.32889186607242427
0.39238679417981814,-0.8634810496101897,0.33447699594583036
0.4284743354244127,1.2407886658644631,0.3306473041670441
0.4208314000870861,-0.9171942370872757,0.3345685421625935
0.46295856116888895,1.4331837810659394,0.32934523591168674
0.4549917729431555,-0.9517918842710635,0.33659823775134246
0.49680643414422027,2.1678818148359618,0.32615088489339017
0.48383460591947175,-1.0160768518480399,0.3358946275184281
0.5121850427845619,-1.0341875378764434,0.3392272385942873
0.5717568843718452,2.046152680857619,0.33491506398841125
0.5416265356091245,-1.0537008497439477,0.3354159636177125
0.5691849108419231,-1.0682007088844592,0.34026369163760123
0.6622689390424279,2.2207964063472088,0.3425219969858431
0.5966932391844565,-1.079546512267063,0.3364025900890495
0.6212827898878319,-1.084000154935,0.33829392817502973
0.6490714376853164,-1.0922286607935034,0.3414103630342068
0.676874903029322,-1.0888309929684588,0.3377607895007105
0.7036838681224905,-1.0930167969211722,0.3392867726054414
0.7363856533350354,-1.0921041111758196,0.3383663407506198
0.7726006726646871,-1.0934458450059805,0.34319845972871316
0.8116382382370677,-1.0885590661097966,0.3467470186106411
0.8439207399344437,-1.08932635068309,0.35779918097546193
0.8809245484690609,-1.0888102186015733,0.3586219003012283
0.9195708514741607,-1.0844160815008574,0.3568965054189566
0.9574627383891301,-1.0849795390870645,0.358781174084289
0.9979242013918187,-1.085784907603969,0.35820403508433546
1.0344415351332845,-1.0808755296793218,0.35714842940109826
1.0712259778144433,-1.0809200523958074,0.3536132695000938
1.1043279168930242,-1.0804606565607866,0.35320921153041335
1.1374306622214,-1.080254149669684,0.34826657507241204
1.1737960833921492,-1.0799349798944171,0.34609531054185927
1.2059272573827635,-1.0812921702492186,0.3446142923649204
1.2387578793904772,-1.0830848593360753,0.33378780585914
1.268667840548453,-1.075538095654613,0.3356685236869632
1.3022075252398726,-1.077024910753797,0.34293222295100617
1.3344973846433386,-1.078788778477753,0.33954941531969646
1.3619232673740278,-1.0778822589521677,0.3357813332201579
1.3977993341104793,-1.0760707679651293,0.34011977085186557
1.4273560984321112,-1.0787461629907609,0.3351883591327157
1.4574383532297506,-1.074942760574885,0.3415989058797026
1.490340614385544,-1.0764387912891056,0.33610879388867543
1.5164440948976736,-1.0745638727157958,0.3446068622566309
1.546163698246598,-1.0777342823778737,0.3343624026315805
1.5766162090964844,-1.0772033034341826,0.33928318951602865
1.6052435961938438,-1.070342606493594,0.3370299060664834
1.6371349435143565,-1.0648244722320261,0.3324651099378995
1.6685461442110792,-1.0521912034216052,0.3332987027824848
1.7035740946410236,-1.034181375556137,0.3278546888867085
1.734333538881745,-1.0072687824498814,0.33330080830846465
1.7634029171259995,-0.9480311269046088,0.33363410152173434
1.7936914045315797,-0.9017548203457718,0.33154422523996446
1.8264210634922025,-0.8545037157584487,0.3259082890641172
1.8582543908660496,-0.7997505912672845,0.3291146030740517
1.889359999944842,-0.7611508814965169,0.32576720273552723
1.9215009062382737,-0.744963541335037,0.32422268300885254
1.9548799272122963,-0.7409489587283622,0.32302521149257835
1.9876836065712469,-0.7400565273662494,0.32221668117563085
2.021411722966371,-0.7464771836857577,0.32038693711369826
2.0525890963809372,-0.7429674586399329,0.32407625718737837
2.0862607218189324,-0.7577780871644044,0.32664805600489094
2.118929260048028,-0.7543737860310472,0.3333273801557241
2.1509477306216347,-0.7475785079436754,0.3257908756808703
2.1867346338907576,-0.7509058488696644,0.3320614656916949
2.2139945885675787,-0.7503787024701913,0.3298513502155602
2.247967695130365,-0.7512437211778703,0.3237922403841593
2.2785291292336227,-0.7494716333780862,0.3141254435070293
2.311484246574248,-0.748367765587461,0.32235419366137186
2.341033161197869,-0.7431926387420216,0.31406151675802685
2.370564185688347,-0.7422890354903444,0.31660287893266237
2.398857862940911,-0.743388419816675,0.3213551863896576
2.428886693486482,-0.7487177320743004,0.31671657238235434
2.4610898694677603,-0.7403060372049738,0.3183305932855677
2.496067700752639,-0.7402155485213229,0.3192900154611822
2.530727119477768,-0.7417155458048669,0.32002444378069916
2.5662365943212166,-0.7369051316627342,0.3193681697694463
2.5976068628129116,-0.7340835790242548,0.3227044017875675
2.6319165311840935,-0.734619532830759,0.31705027197272523
2.6618263868310237,-0.7349074237794336,0.3197769274610222
2.6914150437807023,-0.7362936543173509,0.31698199408222577
2.7236549068707783,-0.7315271123639765,0.3214020498646987
2.755234320200821,-0.7328909691711527,0.3231908297726499
2.788109843633987,-0.7321294467492949,0.32003245713580475
2.8186439330836994,-0.7331897568015133,0.3179426742681922
2.8510013473073923,-0.7320990241225477,0.3184449952503344
2.8836427036275367,-0.7305218193241466,0.3182422012948164
2.9134121114384866,-0.7288396531294516,0.3214554702380781
2.949283881434518,-0.7303115220558123,0.3217586649529893
2.986046395112491,-0.7292835751846626,0.3198319618320856
3.0255370353561335,-0.7271346624293517,0.31880013542392704
3.0633496365053445,-0.7236982667431082,0.32133904071197367
3.0952624773755737,-0.7286678346641868,0.3134499920382382
3.1270517153499746,-0.7332578709398184,0.3093172255808889
3.1559257898043023,-0.7321317288773233,0.30555999327009153
3.1875035282844704,-0.7327979740938537,0.30194135483482815
3.216809134077401,-0.7266749883423491,0.30118937506440024
3.2435080743624205,-0.7243215281908996,0.30293019110000297
3.274793406740294,-0.7299423464562919,0.29913250640368777
3.3015370246441367,-0.727461472927195,0.31191255348609626
3.3325010757745077,-0.7272793905785505,0.3097108416996391
3.3688014582180204,-0.7263720465489664,0.3118634619020401
3.4029455174944507,-0.7205437342434944,0.31564415698967185
3.434487730474741,-0.7182375312164443,0.30629817329414266
3.4678682291723373,-0.7118616374729286,0.3107047909529289
3.5045722993854875,-0.7148701260513094,0.3071207657472846
3.5369471201923632,-0.7129330059214348,0.30740760054838995
3.5696093401990074,-0.708201676361847,0.30436073619956544
3.602945120744841,-0.7088265871171924,0.306076589783947
3.6353311103648487,-0.7259156401798965,0.30556976109640116
3.666692220225904,-0.7875202695927943,0.30807649226663625
3.6930871436365384,-0.8729871199630074,0.30638520418295756
3.7210992373884735,-0.9302595128701253,0.30485858181504566
3.7506285756929363,-0.9572295301809914,0.311165139214862
3.7859145066982913,-0.9739592238841874,0.3104920195319138
3.818454379627963,-0.9910245223599824,0.31300735736638013
3.8511754473218884,-1.00579939426627,0.3149208140642866
3.884025141625998,-1.0153200600823422,0.3103084102722111
3.91653802704008,-1.024591782176255,0.3051833749439629
3.9544395843185507,-1.0269580708408819,0.3144913453389752
3.988356342855332,-1.0245958582438943,0.3153319933047113
4.01167769831277,-1.0192288579317854,0.30069721658637905
4.028825173730183,-1.0190981677179565,0.28483674198284087
4.049550516250448,-1.0236309754570054,0.2733363438822439
4.086881992493068,-1.0298358182413796,0.27887058040651846
4.156861131999569,-1.0250229212769508,0.2845150669826798
4.259419320490263,-1.0213927008516828,0.30863208925672225
4.380577069620794,-1.020037377961664,0.3221626879990391
4.505687369601661,-1.0068133718088503,0.33814120569249884
4.6421345540365815,-0.9883299339304189,0.3360270227370536
4.789758674752092,-0.9854192585115067,0.3379413113144171
4.926186851793119,-0.9390074537966792,0.3351161025203352
5.034331858909429,-0.8241987920421665,0.3227652800957856
5.067634558945903,-0.6519971792242064,0.3156238601815104
5.220910594367051,-0.5728223755041039,0.32622784598681204
5.42688828095251,-0.5456873798344529,0.3306705751848437
2.8319927567718857,0.9273205916518816,0.2745757995820786
5.711558458196306,-0.5013211506445804,0.3321009536298663
2.536613234778404,0.8688520272793422,0.2928013810433409
5.682602215499303,-0.30499364582924154,0.3244821150457952
2.5201187430214533,0.7042733085616574,0.30621106433121104
5.653934555034291,-0.14546934981107207,0.31824729796013534
2.570812639999821,0.5085061780192174,0.2031560024994672
5.637783364557956,0.003768339706537588,0.37549081987190913
2.570806535769376,0.3029565350613753,0.15887305234463042
5.617378424464355,0.12804846396257646,0.38560393616509503
3.162133277206626,0.1372743559183747,0.29375998568493944
5.601707418420528,0.24226196537650066,0.32238884142038654
2.5130165002607554,-0.055016884765504315,0.3918049045305875
5.5944901620386664,0.31366202239685476,0.2659798864197344
5.592666387635811,0.3484795086666338,0.2341543928513808
5.598367496107656,0.40574107881013943,0.23423663428765212
5.593160792061092,0.4565933319214224,0.24642626054228361
5.589970524245666,0.5110305559436638,0.2682053173698459
5.581263523582343,0.5597131034804659,0.2823494419902023
5.579232794687093,0.6044186017361654,0.30134347319932564
5.572471490446325,0.6536157906493497,0.3049878477585974
5.568738978517133,0.6922963886068267,0.31481171456696516
5.565700019467622,0.7346913425872453,0.31702091270054644
5.55948082539735,0.7717470970354051,0.3102278996703778
5.556912531847199,0.8066118550325609,0.3034714944142521
5.555803667033548,0.8383190299864558,0.2948423221113767
5.549745581411597,0.8689536026385833,0.29022400208469656
5.549250274197844,0.8953754782645315,0.28708595359348904
5.548691403963314,0.9235674845889802,0.2812088740369339
5.547356942053687,0.9504711066127014,0.2916569056662412
5.541242808737104,0.9799624058319528,0.29451610759640556
5.540068993432131,1.0073530519919187,0.2965955232789742
5.538968945241923,1.0329130125562989,0.2941895262776873
5.535210634661277,1.0598334828341351,0.2960675114805261
5.530245470688453,1.0862118602642075,0.29767678354384425
5.531227352883846,1.1112899832006922,0.3013918674145069
5.525179772038596,1.131823241070553,0.3002266223898064
5.520309021810884,1.1592993216282872,0.2938666646354243
5.520072460978552,1.1900227385670203,0.2948761222764992
5.5153632681527265,1.220856906841113,0.2966212589519838
2.325151032370803,0.5629405806888446,0.29785503435792215
5.5080460900051165,1.2537573735445717,0.29831415915972564
5.502973708252893,1.2871343167635443,0.3037521110234955
5.500371958405508,1.3244501417894354,0.30367334588915695
2.5628303561491808,0.6768821233589626,0.29301307002319726
5.501392061499615,1.3602647920285982,0.30451228781887424
3.1081089020630976,0.8263684783517427,0.2959913293586278
5.500029094995897,1.3923743244270206,0.306907961116263
2.755578752365112,0.7689207392984653,0.29774719556147444
5.498341965822375,1.424363462016797,0.30443988867936184
5.4936425699859095,1.454729445959368,0.29946825743546485
5.4894863674767915,1.482326853214626,0.30201213406837485
5.495166118050052,1.504947279377173,0.3024319352687631
2.768109862597581,0.917455106179998,0.30437440353527717
5.485338876033429,1.5280852340017734,0.2996483545719423
2.1407309518305677,0.8250454821268357,0.29243163760227314
5.481133044418415,1.5538047628498879,0.30602467239038195
2.44518305491137,0.9340407364157335,0.30317341788545044
5.483296675527968,1.5798682208397286,0.3002598999978215
2.5181703512970484,0.9918914587623372,0.3035517516758851
5.478340629637199,1.6050082568239934,0.30059960563924465
2.587253187254797,1.0499737938104277,0.30836155544812294
5.473208824576583,1.6316494084975008,0.3013231828365944
5.470642065246106,1.660189695028403,0.29990769332354916
2.144218167440654,1.0344628410112904,0.2857578492377173
5.463215308617841,1.6891318200367311,0.3046126830859008
2.30603604583095,1.0954358333080354,0.28406530825422044
5.464256503842536,1.7228506569038116,0.30391921792876403
2.131077501420152,1.0798155182672595,0.29055623331349506
5.459721167241479,1.7577905727713585,0.3000520986093274
2.531557458296971,1.185663871343027,0.29039015987320227
5.456277022088934,1.792391252928522,0.2985361777319349
2.615097634312181,1.2256447447746504,0.2923568001559839
5.454659803510761,1.8291899632685535,0.29772862381237114
2.340560671261171,1.1924415583069221,0.2910898129476477
5.448683259065581,1.8599390779733547,0.2989663870235837
2.5515619689082714,1.2776546395657724,0.28904442922032936
5.449362431362683,1.8907817603932169,0.30552513020183064
2.7123313023572417,1.348606055454535,0.3006661708564173
5.443179107972222,1.9151544311804025,0.2968978117669008
5.444187304799566,1.94717716240864,0.29765983613085584
2.6592418007466327,1.4039710187282037,0.2987511699354758
5.437104171734619,1.9752532616566985,0.29511155957246843
2.649101968234164,1.4262201877735947,0.29497333104243306
5.4403441358570355,2.006881924551682,0.2946429890546165
2.5524117445319794,1.432430161334398,0.29571625729131085
5.435537077916505,2.0474847315093405,0.296149504657527
1.963725614693396,1.3321392914278662,0.2956453242959806
5.434109874265009,2.0796678235627897,0.30722913031094673
5.427862907914422,2.108619241749404,0.31065218024606306
2.2394300879937763,1.4232683192126594,0.29457110780063833
5.418939298191748,2.1608883477058054,0.3128433772832136
5.400537314972863,2.25361079959028,0.304849876728126
5.389888927205653,2.3816717341692586,0.30264679965033653
2.484745082092413,1.0477975816551997,0.303109571315223
5.362110568301267,2.530678378718184,0.301926154257884
5.341481780320089,2.694995167078198,0.28688808473100824
5.307006589459125,2.8901319421276837,0.2748436745744985
5.256703843869231,3.091473668902656,0.252124106243562
5.1138917823722645,3.203661820841288,0.242935314233721
4.91451894277067,3.1819870348866166,0.24306042679832768
4.727039326430565,3.1560350889484954,0.25867819080984983
4.552383655973988,3.1508254226897696,0.26083816791751324
4.414856685682019,3.115830940518053,0.271046707090172
4.273455124158505,3.1071504147272497,0.27627368083958254
4.1653707300126115,3.0925964892533844,0.27606840891353146
4.078920222116064,3.0838952753987487,0.2707879447119715
4.024471965092064,3.0816178127238687,0.27203396231889715
3.9836927321199123,3.080211535106195,0.2758905675800998
3.9478211419968607,3.085240898844579,0.28324079821474274
3.9232740643384267,3.0893193958489302,0.28621129322786953
3.8964166347807603,3.0914906446552193,0.2942156198579042
3.8743362457544883,3.0886729337771817,0.29292266629525154
3.8456208648830854,3.0967144121923544,0.2934198754234252
3.817738713199881,3.1021084831214347,0.29597693069277237
3.775364573384681,3.099832885998703,0.3081439928288082
3.727072087843951,3.094537634497869,0.30895362499993034
3.6886858302022714,3.094131280059029,0.30376333544791323
3.649619841526642,3.0944617048948166,0.29820730867534456
3.6183557174258225,3.0860026624158694,0.2954444822869938
3.588384560653357,3.0788103870624903,0.30289894254277705
3.556512833293186,3.0760282531621344,0.3039823921193304
3.527591498078507,3.07036832754682,0.310943466844546
3.4902896930032052,3.063562438304012,0.3037246668123168
3.454197699269419,3.0606280840404527,0.30079481552629045
3.4197059997839117,3.0565746414749686,0.297224221941905
3.3880300507797054,3.0519241255689455,0.29419753611735117
3.357693234444834,3.050158257153081,0.29090992361505447
3.3266686427590093,3.048542607873685,0.28528743053348454
3.3011071048631924,3.04380478447275,0.2879039414334405
3.2763662616738216,3.040600669307654,0.28651040044834625
3.251620221924072,3.0346989538968083,0.2884996855886069
3.2312035387981934,3.0389435266785503,0.2922043280872464
3.2043938587383964,3.0312562719045313,0.2958537224868082
3.179041337352615,3.029184234162027,0.2941802477160845
3.152787809048488,3.030006659148711,0.29662096338180244
3.123491492817523,3.0261458862917237,0.2974412455528563
3.095521813075255,3.0168547427201973,0.297301531015168
3.0623282460110652,3.0113607927967507,0.301121233150019
3.0296117629725208,3.0036149653119955,0.2979279787531312
2.9983228248693874,2.9992173368207182,0.2966858188859779
2.96766776593238,2.9935241549450837,0.2905682876498596
2.9397219561073697,2.9902945020261633,0.28780208259066703
2.9120582197241767,2.987891685898634,0.29091599754329045
2.8855833342196067,2.983351403062836,0.2915835845301843
2.8506666968035144,2.9821148593399065,0.29333921976136645
2.8201002104658373,2.9754102164494216,0.2944336239894921
2.784540491680413,2.973876133614294,0.29283359583091195
2.7543504518529023,2.970342582460205,0.2944939862599632
2.7230369956015483,2.962893025646956,0.2963844960680845
2.686039452161009,2.958987840074546,0.29797084304638355
2.6502636288522017,2.953086220068888,0.2943073561630883
2.616267089829086,2.945400697049869,0.2955000632158147
2.5782225960172376,2.939449906041907,0.2946855270411017
2.544493590553834,2.9362298936648483,0.29175996777981905
2.5077650911959726,2.9310490503030566,0.2927168535878226
2.475715091615264,2.9230760318638875,0.2976065338401362
2.446229776613431,2.9209358382496755,0.2975296796348986
2.4135238657489326,2.9186864224550946,0.2941331224581204
2.3822379471836905,2.9153832462660416,0.2935448811971136
2.347754282491786,2.912592696604568,0.2933779030823086
2.321440185647285,2.91323367212577,0.29236300828062395
2.2863750154337894,2.9104439245578315,0.2899386099513204
2.260963808134494,2.9044245076852673,0.2917079596233372
2.229175041382107,2.9019955881958683,0.29434887898955064
2.1967623732432635,2.8943179087711504,0.2932667931549512
2.165739733552789,2.8930766367232064,0.2909505902576699
2.135124113243458,2.889159786165562,0.29709551158752473
2.1045665811132848,2.8868830554646525,0.303743558151925
2.074732084873792,2.8858171910461015,0.306463635322609
2.044913443373607,2.8795668454449026,0.30594283883544815
2.017737269210786,2.8765731989496097,0.2991458078776357
1.9878998780047399,2.8733036175870788,0.29766367720934594
1.957490110155917,2.873424646916497,0.30174615918104136
1.9300361957994285,2.866728490351665,0.300721906798681
1.9001649923065063,2.857934573987232,0.3035574059741868
1.8682421412717485,2.8581567479237284,0.3014154741978027
1.8353805858763004,2.849510493790823,0.3030513347741748
1.8012863563727959,2.8450996338495154,0.30563901221965134
1.7671584109496117,2.8417159750884418,0.3041563905281431
1.729191124017916,2.8369811977271837,0.3068193029050487
1.6991080064917228,2.8305836830736446,0.30799425675936276
1.6743349783290964,2.8266869942587327,0.3081569876004067
1.6493175583515487,2.8235472914831554,0.3095760339512715
1.622722187844776,2.823483479219405,0.30655139969727496
1.5934129092192977,2.8188243885049236,0.31358057575596787
1.5626204036160434,2.8204648543216044,0.3159631174378439
1.5298800632921083,2.815074245927942,0.31802749504501227
1.4960630046207994,2.812926440478635,0.3166791420885051
1.4604314835668348,2.8027456440029277,0.3083064949451295
1.419614562709599,2.8062210349978756,0.3076394885865551
1.3806206477127279,2.794824131471974,0.298511727802158
1.340655640699721,2.7872372258107387,0.29535307632521873
1.3030734837009739,2.778951214811544,0.28901278415047255
1.2653620497702858,2.7762095362736336,0.28881960279994984
1.2278835820796152,2.7752192449580213,0.2888023088832232
1.1984172984283985,2.7674338840916755,0.2995169865607273
1.1648224051409324,2.762370273439322,0.30307865876490875
1.1414814904050359,2.763539384960316,0.3092361855985342
1.113984664756178,2.761267924714625,0.3042376431467618
1.0830903024480414,2.760399271490183,0.30622014671975434
1.0500740096027523,2.7594809803128886,0.3026410705112808
1.0107347557473023,2.7680795945139725,0.2987674195079482
0.9738528951387114,2.7973806288644196,0.29642653875066916
0.9345176269286288,2.8416606616825324,0.29809483324293606
0.8895129843160223,2.938636774043132,0.29665718249598055
0.8430106391572252,3.0449457274403837,0.29758390980266886
0.7984164206782423,3.1245994311538254,0.28648742874537003
0.7925720271106848,3.1424018989358804,0.2886703641365164
0.7969053923322845,3.131713336433767,0.2932408972333819
0.7919418326940428,3.135703526164739,0.30747829900476753
0.7792703929487795,3.1401164029017137,0.3063576437801983
0.7538617055355384,3.1550445320756815,0.3205552767620899
0.7302990815838708,3.1682302316554023,0.31814457502301785
0.7041133715703981,3.1775792249472206,0.30930535654470576
0.6785229221403881,3.1857859173161893,0.3052399060219269
0.6474715926511431,3.186723533142362,0.30279619442234806
0.6145956123304309,3.1992084840128365,0.3018599505175863
0.5799402735686566,3.2162559525204846,0.29555384821010633
0.5445164415518765,3.2633925354718833,0.29880528807997253
0.5206957353884744,3.283938360915241,0.3073849661117924
0.5018346596152357,3.3053569201225965,0.3116144384270435
0.48097587553030074,3.3328399448931902,0.32577614357851215
0.4591832429664001,3.4479324186113898,0.3230537590953351
0.43865929890330607,4.06253549665497,0.3257181538649458
-0.8015841975975248,-0.10693261159297496,0.270687026198667
-1.0594346182529901,3.340131491259747,0.30385124503195954
-1.1050598541572676,2.9261863440272617,0.2984483820839228
-1.1461839577764918,2.9127165553876995,0.29129897740172633
-1.1852600017566564,2.9015411379289873,0.2920485718525722
-1.2162715071233798,2.8898140634473855,0.31169981758182574
-1.2454200987903574,2.8825559052630143,0.3075344040351148
-1.2851219912130611,2.8788845549078617,0.3004550133245932
-1.3218962183873728,2.862625411978831,0.30941213945396473
-1.359373050145004,2.8612446173570905,0.31470156252003145
-1.3944135896485237,2.848830246996232,0.318437048769544
-1.428300879334752,2.870234930131008,0.3122754792359367
-1.458529846506612,2.8724343437543407,0.300950102543045
-1.4820129762298477,2.8750094673421898,0.2964005887790639
-1.5146094583444805,2.875351853619909,0.28926579618926457
-1.5431118810716513,2.8752203313582645,0.28722459597206423
-1.5694879728388442,2.878844427748226,0.2956087094995455
-1.5958496661507062,2.87843012475625,0.29422802932396264
-1.616928203865185,2.881567678586313,0.30496102335386643
-1.6493262311479737,2.8769759419510867,0.29493805151411645
-1.7563536140065836,-0.4412167521055017,0.2960321394886264
-1.683666596571013,2.8759858635657323,0.2933110955258173
-1.7234445343414952,2.871430887378307,0.29540815985223695
-1.8070404862578249,-0.46283928963205767,0.3214061153399379
-1.756821329364314,2.872658693276406,0.29264429525718266
-1.8322653160782079,-0.5022524568433715,0.30110113989411696
-1.7948994573444688,2.874540761488766,0.3016954690799769
-1.854535218405206,-0.0652000452254633,0.3027700509382574
-1.831922653931885,2.8797110230517036,0.2992384979402857
-1.8739126375531299,0.21605130288509455,0.30674166612094994
-1.8667888299632542,2.8940145258994314,0.2946492078065016
-1.895955607410768,-0.3948016698606347,0.3122288793971593
-1.907323921649859,2.9051503643642542,0.29854190579520284
-1.9122374723293756,-0.26293891341359954,0.318318307078846
-1.9464338649635782,2.9278212247371975,0.2993091640493716
-1.9254082062727331,-0.23158465697625985,0.29586016433903123
-1.9896366083939747,2.961738924806407,0.30983207872729523
-1.9636310213362815,0.45744167239865186,0.3097398031532618
-2.0255939042502416,2.990654280646,0.29747266992433624
-1.9927894671825503,0.3158594723779846,0.30209218522094516
-2.0596984606103934,3.00902670433652,0.2990185386456575
-2.021600279097131,0.22064420292888398,0.30525711431996405
-2.0946112628057962,3.014681675189026,0.29825712403074767
-2.047701432309271,0.12767095963475739,0.31063846964876757
-2.1269175845023733,3.007534139663555,0.2940895861172149
-2.091027117887572,0.15987506746760172,0.3070231967864849
-2.1585570871241555,3.0060443280487146,0.2940138394594008
-2.1288088739850357,-0.06976152044939177,0.28214212895594504
-2.1863404922136205,3.0136155560614153,0.30520545377404623
-2.1617210572866394,-0.21055697637523618,0.2985776772587688
-2.213045015925894,2.998032176464649,0.2969966814266326
-2.2013828225200824,-0.40975336994697686,0.2973169337390077
-2.2400242157673573,2.9930270614916945,0.29840235806267695
-2.2441071530573202,-0.2889092390894601,0.2911629394560736
-2.2664166225242752,2.9949946525061613,0.3027179528803043
-2.2880664744580392,0.05079536502652826,0.28015085114075405
-2.2951182642453873,2.9996321118136606,0.3103686117903754
-2.32478664389534,-0.10007642380771742,0.29565022378316097
-2.324409261550794,2.9939126715437014,0.3038560405661148
-2.3605426692529816,0.20544817588636666,0.297991524132533
-2.3581681755163815,2.9804430461740514,0.3027697724023045
-2.4010048224778453,-0.3731289558805577,0.31380815832880177
-2.388458810461006,2.9798013953966853,0.2962110828234037
-2.4409599444083656,0.10632816437693071,0.31892686570446244
-2.4186550948457395,2.970145297384301,0.2954764418397925
-2.4902625114600885,-0.4663215404748269,0.2946872422081062
-2.450423338294069,2.96842488640385,0.30713004436899954
-2.5190020937614204,-0.07222342742480592,0.29912181964141304
-2.483858739773882,2.965565260779681,0.30610970110635677
-2.5548557991076244,-0.2584335994994067,0.3051888995647888
-2.5193533810237896,2.97037111008226,0.30433702313695593
-2.585982224838656,0.0600898387901605,0.30448132229354674
-2.55272559143376,2.949898221690823,0.3057086982061738
-2.6132541015737734,0.04110439095428675,0.29715952063976603
-2.587020266805697,2.951962551557445,0.30888789492441754
-2.6352762875081335,0.3111750909723978,0.3173890269735382
-2.6255764322671866,2.951088360617315,0.29831439562755885
-2.6582345053561753,2.943196814090448,0.3067008713867326
-2.679512858960316,0.3908252418490161,0.3099136876217959
-2.69640510640101,2.9377445824862742,0.2987099264553487
-2.6877917204072035,-0.03848247205612765,0.324102137565943
-2.737751106806454,2.92689732844201,0.28971175361589124
-2.71532907077453,0.19263291793331172,0.3152022605780538
-2.7753580580013475,2.9188374430845165,0.2881023023195167
-2.7495608712009147,-0.10151174221287596,0.28952303829172893
-2.803395246664889,2.9009965595625204,0.29692288884608514
-2.788823936905757,0.035881593478373386,0.2805887045230668
-2.836142033409412,2.9024323288086658,0.29894298251572765
-2.8438382464721004,0.47783250094299734,0.28540166030473224
-2.8584893498212782,2.906747246659094,0.29952622095495446
-2.8953341265016195,-0.1255301515280558,0.2780875673279658
-2.8767692637118025,2.907315703216784,0.30238504099568164
-2.9405117992463214,0.24748716677809424,0.2845327261022156
-2.8984408787158844,2.905080405437554,0.3043371568500215
-2.991125449021588,-0.034188482783880314,0.2781817405628224
-2.922021480417516,2.896840590029466,0.3084673121457359
-3.0177437032066767,0.036837194789020034,0.29702636276294914
-2.957645212859711,2.8991975107328605,0.3041392502139677
-3.0232159126874656,0.43863898831209447,0.30115228339410866
-3.0008009929416395,2.8855359432410284,0.3025173226973143
-3.0424009829465364,0.16551069375580507,0.32143133000318636
-3.043048315321553,2.8753525079696804,0.292158084558795
-3.07049441140527,0.08402719470920017,0.31623504667617325
-3.0746276438876454,2.871931688864074,0.2935315698432965
-3.111768084035052,-0.38828726058801655,0.3193040869115392
-3.0996535967571366,2.8655568526725905,0.28984690107711847
-3.151378222806792,0.12775264544250442,0.30181125263090086
-3.1278004707883627,2.8616299965492997,0.2911005703441241
-3.1836710837637505,0.5047657934126359,0.29437757710521784
-3.156151516758616,2.857604244871999,0.29607897833792535
-3.2335818559457126,-0.4067310582257475,0.28149669807065875
-3.1859033542553914,2.8518691150644138,0.29973597190196766
-3.2549294508013293,0.18608625361958597,0.2882817834758092
-3.216030695104956,2.846772992252822,0.30069007370880924
-3.232899865103898,-0.23790355944998565,0.2976759825141385
-3.2706526719596263,2.8428648642486247,0.29895860330490037
-3.2021152042887473,-0.00856481731700387,0.3075783408351785
-3.333500918433141,2.824374296284477,0.29810349278248377
-3.2042099502106365,0.22314523291955846,0.3017094313922878
-3.3830920355407974,2.8039531388709236,0.3008421789124064
-3.172731350523283,-0.2186691014852986,0.3256619166723277
-3.428574708271875,2.7983014237150012,0.29077601165970857
-3.249738425542205,0.47197209363613535,0.31490154958500216
-3.4673804383331652,2.7906754957551065,0.2928224356941081
-3.1999293328535794,-0.2170384061298818,0.32027122869297775
-3.4997134037928705,2.783909911924134,0.29391400615641805
-3.248826126724949,-0.0178438847092679,0.3035404992809766
-3.537438540917436,2.7752832392551863,0.3007577402109769
-3.289038782514466,0.08987318539581546,0.30353665191420925
-3.569685709927851,2.7682086543793476,0.301209052681055
-3.3131327337283634,-0.039493893348059306,0.30341575941396964
-3.5996677697315222,2.7608789500109223,0.29753262077872733
-3.3925926789715097,0.20782224222894508,0.2923483745254575
-3.6264364282998676,2.75910933031002,0.3021102949740826
-3.4179080301525255,-0.057435151470129675,0.28334103393993265
-3.6514370299285877,2.7507950620818074,0.304108170421298
-3.4800755193636115,0.13769028661714589,0.28122210324916086
-3.677788007737182,2.750103828861353,0.3058240592731227
-3.5459961971026805,0.40396482083045004,0.28471381188699224
-3.7069964303575187,2.7423150689629425,0.30780151317140864
-3.556265345930429,0.012492860894810276,0.2930294464899285
-3.7429906830297326,2.74009144168,0.3028085355972472
-3.6137403558957906,0.4280642162369577,0.3062836658828351
-3.7768770676988126,2.7342915143150304,0.2994967032624674
-3.603509202832449,-0.1304699496649575,0.33296530933431756
-3.811482429632095,2.7146177394023296,0.29016135563484735
-3.631323164647915,-0.025170573236168448,0.3259142950054059
-3.8415836046432528,2.6483244664885293,0.289324406505906
-3.6602198398164365,0.1342958175014426,0.31953260703008557
-3.871846086739845,2.571918322686799,0.2875974566941434
-3.678494146164849,0.13631298843681816,0.3163851286810203
-3.904699892490337,2.5274346598170836,0.2852064022000769
-3.7026545872757013,0.1633989270274121,0.30342321059613375
-3.9346871274384,2.504859481683586,0.28519215755886157
-3.7301060425169754,0.05806885074296342,0.294142430085711
-3.9636917706099797,2.490862445052953,0.28470658801713494
-3.7958019314627727,0.39001111107104336,0.28373948347552286
-3.994598506931394,2.485594797981614,0.2895646646956427
-3.8189010204182874,0.27814999492729453,0.2823346819792413
-4.025232681481674,2.471439342738758,0.2932012554773593
-3.8565273194893397,0.2927259509326836,0.2839333235253388
-4.057605747555525,2.470382945441169,0.3025472977033652
-3.8653520827232266,-0.02439113970221163,0.28454282255579855
-4.088114600983122,2.4655659975849313,0.306685878607891
-3.8947160694423264,-0.085196104703533,0.2905549481721907
-4.1194454482267595,2.4628527511458707,0.3080973116305887
-3.958591042340375,0.34524699838997486,0.30738102431903536
-4.1546730310897795,2.452142016636946,0.3062693705181778
-3.970961718094243,0.1550667404317756,0.32242022838726586
-4.191508038233173,2.453413546778206,0.3013898115977958
-3.988941793894859,0.018596575047591823,0.31384402276712603
-4.223799774995932,2.4462404235668123,0.303448184180536
-4.046332182735673,0.28421140835722447,0.30505764470395824
-4.2536762561849875,2.438254630183663,0.30356308489584816
-4.067989700418435,0.1105724625615272,0.2972316900424287
-4.287510921977673,2.4352281567784733,0.30059868126121186
-4.08809530608268,-0.0034555358030239347,0.301954273938833
-4.320306034314639,2.4304854887934013,0.2961005161296149
-4.139275113575027,0.1873102656631218,0.306996579458362
-4.356334477741051,2.422754134851766,0.29314233336754114
-4.2153948353490325,0.6205932915527879,0.30337198738320303
-4.38700846141233,2.41638328422117,0.29321986536372896
-4.2306634213860805,0.3231759293874594,0.3014418501071395
-4.419883359209483,2.4075941595604076,0.29469968036862515
-4.2882532377814915,0.507912047543466,0.297486003325746
-4.446877245359188,2.4012789417809555,0.2970084831964858
-4.297324832617379,0.15113463493917068,0.2785261042332229
-4.475239870712087,2.398975153255022,0.30269723240886226
-4.346204136669205,0.30279593018902173,0.29161931239901123
-4.506971094265106,2.388594264076276,0.2995751717814751
-4.371510383019622,0.1600869291651923,0.30301315290813413
-4.538522183375684,2.3828155239733197,0.29794833661203385
-4.4314031590732395,0.49963658490343255,0.2911847399758403
-4.567804927779474,2.3776584877891285,0.30201478039127677
-4.424531369643756,0.01303001410858573,0.29584462374757187
-4.599052945809237,2.374583767087288,0.30133017248267463
-4.454109337113138,0.03423924276508705,0.2991257093847249
-4.630345745316694,2.363581776254885,0.2988255446985406
-4.516155838394222,0.4583196312635618,0.3102806262326426
-4.663928798482304,2.360540724364407,0.29678747133721856
-4.505171139960819,-0.06749018745906077,0.30639631113078936
-4.695748347897033,2.3580152889998516,0.29677802214261917
-4.524299792762814,-0.12924052406129216,0.31564276218569354
-4.728413372746968,2.3523395809541556,0.3015775975022958
-4.609875320595432,0.5530177505002107,0.3162171009266334
-4.760018778164415,2.3457031189924207,0.3045076285567301
-4.631152157960524,0.3188374954514872,0.3148572837931077
-4.789398910083742,2.342646275218309,0.307374745374764
-4.641967321617744,-0.21749514243898993,0.29597701170447027
-4.814909974126078,2.337616150748871,0.3107458426413326
-4.707257495266011,0.12884346694603033,0.2976995858801061
-4.842243568618342,2.33266804761956,0.3118409302313015
-4.744884554270695,0.24117535667023526,0.2969023713033264
-4.872502053923793,2.328247873571176,0.30799664816415845
-4.761610998916839,0.053558863585950744,0.3007251518030838
-4.904225843235212,2.3260822033823922,0.30598597497762065
-4.770137985514348,-0.00862877876233803,0.31303483497724416
-4.940388534001276,2.3171270431891835,0.3031047091722772
-4.804176183665039,0.36948704384306486,0.30031051697767913
-4.978331466692292,2.313698314607378,0.3043690914456224
-4.764108262604119,-0.04791874890550618,0.3315711718083033
-5.015800344641309,2.3043517471447577,0.29374777625435045
-4.754592635589608,-0.25739103671355146,0.3189836664928889
-5.054800453350763,2.304971819731783,0.2950701125037505
-4.805826143150884,0.025524917687657744,0.3179402403714793
-5.089954603159383,2.29064301615602,0.2934449713533754
-4.788593981596934,-0.0007615340811679694,0.29428622523488185
-5.131363797097677,2.2876955968173553,0.3025816228312901
-4.7876595829683986,0.3865862904618287,0.29055310908579046
-5.193092756378004,2.273480888404233,0.3029110277936816
-4.6481026022894945,0.14884305341104942,0.3150151913799604
-5.254280166764067,2.255254304115715,0.29393431776236006
-4.751580185686708,0.5699222576995366,0.3258619949692367
-5.312503107255951,2.25140580842492,0.2870348820430813
-4.57001117181006,0.01323940384341471,0.3325157975437807
-5.3479656536057485,2.237700292659875,0.2876874763630166
-4.579196942180202,-0.050935961696124465,0.32381536622026946
-5.379602392865426,2.2242027157641373,0.29484792177389324
-4.617019887218689,-0.0802361844947661,0.3105769533891682
-5.407724206790209,2.219587491502124,0.2956860724518334
-4.5834915758707355,-0.37375714320233344,0.26510592290016044
-5.4370307718886925,2.211712582898868,0.30442686229884425
-4.763350138935161,0.0068839033007945805,0.2815555795405267
-5.463339197050854,2.205072081546759,0.29682160515273515
-4.8290768081280975,0.13564770458823583,0.2706314793648569
-5.498032480501092,2.193403769110512,0.30279181707743946
-4.694355965464726,-0.1450273138304512,0.29756576632146886
-5.552964306686199,2.1815993572642594,0.29778878124251396
-4.629404015697543,-0.07862877701636783,0.2921632107728381
-5.619009977147607,2.16696287410923,0.3028485960023035
-4.731300886634905,0.3171094095412317,0.3213113117769183
-5.689189848356415,2.151982769273549,0.29705248334839096
-4.7019009948647215,0.34143882031952866,0.3352206329134216
-5.746148021259136,2.1410167322828646,0.294866120896782
-4.290196248160612,-0.25656345780592815,0.3342240308329753
-5.801744838325775,2.1309701500749596,0.2998709988127951
-4.320036262896922,-0.16953189968120053,0.35456850945334834
-5.849069729418973,2.1117633101410767,0.293267417313886
-4.469895515014499,0.044918105962681976,0.31494284145918594
-5.895183525458809,2.109732065099692,0.30158614139354
-4.570989296941692,0.1382996279223987,0.30370389218461497
-5.928986273415418,2.0952788207115067,0.30289712164249916
-5.963924148383217,2.081918358415261,0.2941078787557927
-4.494970675539028,-0.07503973871650627,0.30970261628207363
-6.0010693871514285,2.073650254985618,0.29651239854954525
-4.706780924973527,0.17053513338432813,0.3155265229116706
-6.031360933806986,2.06291749063075,0.2936904476867564
-4.77598336447371,0.20984743551227436,0.31203853128999304
-6.062564576671946,2.056855337790339,0.2955584420638856
-4.625176515765498,-0.0789102837823128,0.31574440111898044
-6.099834245482721,2.0465631138311124,0.297956308953526
-4.592426550157357,-0.17809586654320553,0.3215149906226339
-6.131604764614848,2.0388729555622223,0.29741797935734865
-4.665349712581687,-0.14904909386637977,0.3198987097765737
-6.165874352167962,2.027808642392998,0.29863366610921627
-4.56456173695346,-0.3823736617088205,0.30658382848016585
-6.193212422349959,2.0207267761187144,0.3028114723698452
-4.55383465198454,-0.4801399689735837,0.3114292393344205
-6.224496837218074,2.010390033074359,0.29921565141815426
-4.6891454153530825,-0.3508273062000158,0.30832717505078583
-6.252684273389667,2.000806639826344,0.29649403066115415
-4.617491992821834,-0.5398130512407466,0.31034021955646435
-6.286753228075982,1.9948570888112087,0.29487381704020044
-4.7964309884736736,-0.3544288669313871,0.32251301133211385
-6.317808452497004,1.9876142825052312,0.28944492794429255
-5.077059824705496,0.004330994730015636,0.2928973180145039
-6.347656008728219,1.9800298131396028,0.29361570638907625
-4.9067300471365245,-0.3168822753699414,0.3108307301545935
-6.382431351409583,1.9726258212547063,0.2856447011508024
-4.663631917817456,-0.745046862185184,0.29682847435278703
-6.419948160588968,1.968096651234956,0.29139423446310597
-4.944387107696164,-0.3477399506148473,0.30780940772887727
-6.456403954666876,1.9587810139107578,0.2896408997929331
-4.856026676586362,-0.5305675396477538,0.3282520189007764
-6.491512833783564,1.9458271270744913,0.2872827103155602
-5.137579251922391,-0.13666724896914895,0.31386029583368097
-6.533001652971787,1.941148244765331,0.2917673864173688
-5.0078556368385705,-0.3695373136142188,0.32827759810121077
-6.573511583038089,1.9309136385167216,0.28661376522490833
-4.91796925186228,-0.5337123666070154,0.3337638630936132
-6.610049245144298,1.9175742581435267,0.2837620665877156
-5.17878740301894,-0.20503810618190088,0.3321808832384186
-6.647629083810205,1.9068860964075474,0.2810997782463193
-5.001211654299605,-0.5106256758530026,0.32143191902480867
-6.681122858093182,1.897025355633012,0.2866345347388239
-5.112268718156468,-0.4017711775769939,0.3163761579029151
-6.712062021172995,1.8899209360516327,0.2875032648052074
-6.741579853523959,1.8824467571249213,0.2985037226916858
-5.215638011210979,-0.36709770027188404,0.3026522526496725
-6.7726041687825855,1.8680653470678972,0.2937901996453361
-4.99140861372976,-0.7391107611954788,0.27444463637580063
-6.807677773435562,1.861261091809078,0.3030202484117683
-5.199554059124479,-0.4959723185934084,0.30287207386094184
-6.839716390258451,1.8506113738279941,0.2893998063786182
-5.038503994359558,-0.8002972619514719,0.28467624695475335
-6.868549032984627,1.844207781546801,0.29824943802995646
-5.287961743666327,-0.5178616935894573,0.3093262543019019
-6.895538244538771,1.8366085710777411,0.2901281647959425
-6.922389883049707,1.8296757740266916,0.3041808798168774
-5.272576608589496,-0.6270357482041726,0.2992974811299447
-6.969680291489119,1.815184824320606,0.3078861146230705
-7.048807827461387,1.783884068249736,0.3097454130187063
-4.996455943111259,-0.5987552201465178,0.33646338343946286
-7.1633952014527145,1.7420062130483343,0.3002672023402728
-5.168206594655604,-0.19649623633193714,0.34209146574890814
-7.300446991408388,1.696968465343145,0.29469617098219725
-5.025010370368087,-0.11045553365581529,0.35143257927307125
-7.45468599815915,1.6377422612437251,0.28422533541877393
-5.162018234280339,0.1226479225762237,0.3388561597547961
-7.587580919847526,1.5736839293580092,0.28345611095637846
-5.391879809910944,0.31390467389707977,0.31220023007524694
-7.710190434440936,1.5407396830666396,0.291207172477946
-5.428070077749837,0.359476260093197,0.29212044506643264
-7.927448763198119,1.5302222446426417,0.2998681149203522
-5.2472257243426474,0.3593186834477614,0.3008353068098179
-8.48565694671211,1.5915560002985276,0.28135678163342887
-5.684177146226809,0.576753551633444,0.29523608380829464
-8.660406840817739,1.422192103588476,0.2839906445835679
-4.959249182921225,0.5061185811277129,0.29799850476440626
-8.677755590989891,1.1849855837262768,0.28219705118876526
-8.671507936998323,0.9466663929385155,0.2805845939140018
-4.35541565631565,0.7646319265218281,0.3066412103390142
-8.624254574063457,0.7410568846544364,0.278014095173789
-8.57587758059285,0.6180517063414653,0.29457022858415455
-4.2776622591153215,0.887853364417833,0.26969564882695235
-8.544146297305124,0.5509432081487134,0.31447844099490524
-8.529152455919332,0.4974071253993246,0.3283014366946349
-8.521025367730541,0.44869665095410843,0.3166308800759596
-8.510890884102583,0.4103996883680983,0.3106979817815489
-8.501950635566478,0.3615550338449672,0.31689579415935676
-4.302530384812446,0.8229313687193861,0.28651364911867183
-8.488302546154063,0.31946237426733154,0.3085677862127841
-8.489937367103872,0.2737452066498426,0.29741371061379895
-8.487202948921976,0.24074754270282306,0.3015090309498596
-8.474458290433303,0.20539949913567315,0.30034684625702984
-8.471275012632443,0.17276702783715578,0.29270686341660007
-8.46382677388306,0.14402709650535672,0.2885395038002241
-8.455113204171218,0.11788509799982413,0.2982306978897004
-8.442491389161903,0.09351675530696718,0.2959694137754903
-8.440551835378072,0.06517906140863958,0.2882666143775695
-8.437454353519517,0.04331177921024765,0.29470036226829954
-8.431490229596543,0.02097445746117016,0.2946720119593583
-8.434326716509643,-0.003916339849118239,0.3134845439968322
-8.422224094114334,-0.033454487557604495,0.31009259789234
-8.425614614689866,-0.05522795409543496,0.2999371402471134
-4.246665085678956,0.3532738498550673,0.3148974522616777
-8.41887862479386,-0.07278533752247612,0.2876256192196252
-8.416870013210932,-0.09465693403691353,0.2962224399855407
-8.415155466464238,-0.12105117395687492,0.30414555587859127
-8.410079047858005,-0.1481786094478584,0.29004650968494095
-8.407363533491615,-0.1765719695829741,0.2950832340295994
-4.343951342258412,0.18442901170779474,0.3120662606322072
-8.397161973708029,-0.2162494516289344,0.2956544928444405
-8.380048554756245,-0.25533107450268877,0.29796465320046467
-8.375065799376069,-0.30026491542278433,0.2974031338647802
-8.364282327862986,-0.3506603777580683,0.29327132815279267
-8.356065341486474,-0.3968154824885607,0.29037729013247027
-8.338258670535518,-0.4398040414547787,0.2864708644764434
-8.337562876018618,-0.47287803912879267,0.2913761820501705
-8.322503427062893,-0.5214866315945643,0.28942166470664155
-8.279350423235577,-0.6179825063039732,0.2965689705556811
-4.3187907077575645,0.3011426459213764,0.29864209441181666
-8.212680204431209,-0.7256564524254643,0.30474121965928747
-8.167298471473813,-0.806103376235859,0.30204037756702834
-8.111268713007714,-0.8582600956041526,0.2906859141431801
-8.027526469451365,-0.8819530681860523,0.2968235544892757
-7.971231086848519,-0.9061969357147261,0.2993851580790781
-4.415567470021452,0.308229501619956,0.2968304373732731
-7.935575528347208,-0.9316759967262989,0.2955558815799003
-7.901543713568274,-0.9467129797789879,0.29321604314020744
-7.886542859819279,-0.9751731888051264,0.2903827045239823
-7.8577823192871,-0.9993308533974711,0.28583159639595335
-4.282731466234998,0.20577802044888993,0.29902737764991666
-7.843189186202127,-1.0244372675788442,0.2994389955659692
-7.822881884051852,-1.0484744857633956,0.30224755417510285
-7.806548224654741,-1.0665133787089323,0.30917376208439445
-7.787038595398608,-1.0889961956690262,0.2994312115703295
-7.763781729878755,-1.113611074795714,0.304037417006018
-7.739472824728971,-1.137985073034335,0.30709635730541507
-7.7212294111198005,-1.1681884859847174,0.2982316352517346
-7.715420653090945,-1.1987902153988805,0.2960871983023289
-7.704357471338271,-1.23041900570069,0.2993014446494387
-7.708224482974256,-1.267244391156686,0.2973450615236461
-7.700939274782404,-1.2968631156790587,0.2968233735458016
-7.714490363269101,-1.3361944466714097,0.31177052848118664
-7.7209584286588955,-1.3708844807245515,0.30749367916639836
-7.725630938272853,-1.4065452569798875,0.31022310131138836
-4.226285247258266,-0.2547608274254496,0.32673435086421
-7.744687439994824,-1.447009785645275,0.3019667960731111
-7.787965242304349,-1.4958806884524039,0.3039670635963234
-7.922891820542871,-1.5772711103419264,0.2934083339786623
-7.947371744543607,-1.620567256709034,0.29403447678227895
-7.968327771590013,-1.6631140941319127,0.28194466299145493
-7.981746940049863,-1.7004007782808945,0.2880964874248417
-7.982739743792286,-1.731491376632532,0.2850560565964405
-7.973478472631433,-1.7585292969807815,0.2964404154131656
-7.98294858121986,-1.7892374094134795,0.28051372970627847
-7.973635498949578,-1.8128937043995905,0.2900472983382264
-7.973661658900148,-1.8415016711590118,0.29741864784671784
-7.967751016966305,-1.8688831123205414,0.2841256371438611
-7.9678990762660575,-1.8967060673608964,0.3096910030760137
-7.961263413024847,-1.9232878649237515,0.3004565187403302
-7.958500724180445,-1.9556051487651898,0.2989689117018485
-7.9518587160232865,-1.986954213488127,0.3047671560389116
-7.953045606095202,-2.026595008098202,0.30826599669031723
-7.950303842732417,-2.0640070048269044,0.29825100833030826
-7.948489838296558,-2.098465722023004,0.2990095356172835
-7.956592372789429,-2.1369890824367292,0.2881186930552193
-7.961737705446163,-2.1635559481719717,0.29704236514786664
-7.9790178654902775,-2.200801596751053,0.284682459913477
-8.00135732638844,-2.229895947810408,0.2937068151226222
-8.003810963653791,-2.264122033811102,0.3075136562631185
-8.016424043509087,-2.2981894466404933,0.3077595633376201
-8.020078730037469,-2.3293358135041253,0.28443403468089545
-8.012479687271812,-2.3608186763442465,0.2828643232129957
-8.0106747727145,-2.3904761561366996,0.2799669294113907
-8.018183713336466,-2.429561394983942,0.2988097642338723
-8.009144057694712,-2.464111297487467,0.29733987760109526
-7.995878084368481,-2.4957296721674544,0.29501232937353894
-7.995411538550094,-2.5281095116376138,0.2754722907745033
-7.988340078435869,-2.5515540248642745,0.2799803573934609
-7.967904248496581,-2.5780325233358785,0.29066933491900465
-7.958986010701148,-2.6111440824436576,0.30341827110019065
