0,0,0
0.018352685,0.495648115,0.06472629
-0.053119324,-0.835874196,-0.032791816
0.05041652,0.758180936,0.108770824
-0.084603775,-0.799599145,-0.021049805
-0.130671349,-0.809914998,0.1433077
-0.119825666,-0.825042809,0.32267341
-0.112998628,-0.862306292,0.370170246
-0.075270322,-0.870206004,0.439656842
-0.023357564,-0.877497574,0.494195876
0.00351810399999999,-0.872404708,0.530646688
0.04177958,-0.87162601,0.541448528
4.258143005,0.035614178,0.350192982
-1.331659035,0.408669554,0.604336326
0.052825669,-0.866488848,0.574478288
4.25860366,0.040593755,0.361004935
-1.326947972,0.396901679,0.642869323
0.080537408,-0.879545978,0.59890217
4.29125996,0.094201718,0.450134312
-1.32393812,0.362905104,0.671933736
0.097292224,-0.889751208,0.637857232
-1.330536,0.34751116,0.7000046
0.102849999,-0.905454718,0.64793571
-1.326512739,0.343614553,0.709805855
0.118939182,-0.900318598,0.693082762
-1.325133556,0.33511505,0.744071103
0.125145247,-0.899399453,0.713292603
-1.320442097,0.338777014,0.745052504
0.128657543,-0.895500337,0.716829056
4.303415782,0.11425187,0.552205818
-1.335525949,0.341233035,0.750827749
0.130130175,-0.893404225,0.72854905
-1.323247227,0.349376902,0.758451249
0.129781574,-0.90142631,0.733833093
4.235868104,0.078736848,0.560812752
-1.324597135,0.35501388,0.76308462
0.1327814,-0.901975415,0.729065539
-1.350265548,0.360978142,0.662668143
0.150832096,-0.895558312,0.72885052
4.30123658,0.064365409,0.922449127
-1.3431632,0.36038204,0.64417912
0.161879728,-0.918581943,0.738114679
4.234395408,0.062789346,0.921038352
-1.355784972,0.363794661,0.646595132
0.200400654,-0.912871081,0.749761633
4.454316676,0.071407509,0.833631815
-1.338841076,0.357393891,0.689655185
0.247109852,-0.923254731,0.758659919
4.351222356,0.093739974,0.694584348
-1.328602648,0.352561008,0.751091816
0.270658144,-0.92852592,0.762474992
4.471405155,0.098137485,0.610835215
-1.347442872,0.350522336,0.787667184
0.31976257,-0.92603987,0.75605995
4.327463664,0.126887752,0.592599824
-1.340436684,0.343063888,0.805063856
0.339705176,-0.928991104,0.762596352
-1.34242084,0.34302237,0.83041878
0.380432416,-0.924944044,0.766923972
4.410152544,0.134002248,0.52689586
-1.339539824,0.341791492,0.84072319
0.410172616,-0.936568536,0.765228896
4.383873292,0.124959132,0.570603916
-1.339025162,0.348557598,0.827018074
0.430000152,-0.9384883,0.760127774
4.425514482,0.140463802,0.59000139
-1.333400184,0.341858976,0.81947032
0.459344512,-0.951289184,0.771501064
-1.336232005,0.34544529,0.81009758
0.488889572,-0.929973904,0.76249872
4.446785408,0.139234532,0.65521872
-1.334751664,0.348874394,0.79387524
0.504315317,-0.944414591,0.764293291
-1.344072104,0.347167764,0.785905512
0.532806045,-0.944857418,0.76775416
-1.328313118,0.352314959,0.793478074
0.551057647,-0.946180999,0.769644188
-1.335939013,0.348076309,0.792971742
0.583156668,-0.939587382,0.772287812
-1.341536778,0.350069426,0.796169668
0.609338151,-0.943333583,0.769160005
-1.33352,0.36046419,0.79873521
0.623549852,-0.937713724,0.775498574
-1.34879044,0.36327268,0.80354934
0.650372136,-0.93925356,0.769997724
-1.33718644,0.37149104,0.80386176
0.6886168,-0.94137345,0.77186204
-1.319637134,0.360125741,0.798881009
0.70793748,-0.93542276,0.770113208
-1.345223508,0.353846708,0.803887249
0.73641575,-0.937063675,0.7731072
-1.33121376,0.35814976,0.78067892
0.75584076,-0.94270525,0.76842417
-1.343219403,0.354210377,0.781891323
0.782427585,-0.946810434,0.765182921
-1.337656736,0.36006856,0.787485684
0.81540459,-0.94468875,0.76697999
-1.32508155,0.360765265,0.80203401
0.832953208,-0.939335024,0.76206444
-1.34467808,0.35801686,0.79920792
0.869278328,-0.940576424,0.757463896
-1.330600026,0.35165981,0.801770849
0.897221078,-0.943423422,0.75089187
4.610411475,0.155278825,0.633510175
-1.32874459,0.35991167,0.79960753
0.90979368,-0.93750188,0.7506939
-1.350529122,0.366367943,0.789562516
0.943187836,-0.934834212,0.753147546
-1.320257647,0.364486995,0.787084282
0.958321636,-0.941159325,0.750574306
-1.352272484,0.36519278,0.783273224
0.984659912,-0.936407734,0.75119661
4.60637204,0.133716992,0.654672696
-1.342166785,0.378068507,0.785706516
1.020606022,-0.932364033,0.752708223
4.607495632,0.144252184,0.672474944
-1.332320328,0.371285789,0.772939499
1.038548622,-0.925874144,0.751367304
-1.326659356,0.366890125,0.795022472
1.074449316,-0.933179684,0.747243644
-1.332010962,0.36049883,0.790766802
1.112041504,-0.93760712,0.749280688
-1.342049212,0.352186436,0.800108556
1.125694483,-0.940832075,0.746602617
-1.335580198,0.355703282,0.792212984
1.16179461,-0.939307169,0.747876438
-1.323581386,0.350268358,0.786233226
1.177574173,-0.931576886,0.7466198
-1.346636152,0.35159542,0.793937564
1.21640129,-0.9331648,0.74370236
-1.3522942,0.3413062,0.7840484
1.25184436,-0.927882032,0.741142576
-1.326172008,0.338271904,0.785431648
1.26771921,-0.929068305,0.73929201
-1.355122957,0.339149653,0.791722581
1.29855749,-0.922504346,0.738476514
4.61946416,0.187035892,0.624585664
-1.34394048,0.346375524,0.796213408
1.330348416,-0.912751724,0.730631496
4.598598499,0.188198159,0.636267072
-1.323496267,0.346534953,0.781762224
1.341567274,-0.922451706,0.73439384
-1.317478272,0.361506462,0.761528865
1.37674893,-0.918743302,0.730228098
-1.329659116,0.362153098,0.75878219
1.393452444,-0.921615464,0.735669585
-1.3272714,0.36197848,0.75703656
1.428822963,-0.914279755,0.734584628
-1.323852212,0.364939386,0.765274912
1.462878685,-0.9090656,0.734755126
4.627336506,0.162821508,0.64191739
-1.31349642,0.37237044,0.7741267
1.473300704,-0.909528948,0.735698603
-1.33532522,0.3900537,0.77814606
1.513644811,-0.917965302,0.73178921
-1.323514915,0.38060844,0.766109065
1.555390848,-0.914307664,0.722687794
4.63669709,0.16758617,0.64162288
-1.319546032,0.364144184,0.775959976
1.57636348,-0.9128341,0.71998982
4.623348377,0.168921479,0.655097491
-1.344513027,0.362479971,0.764498559
1.610664987,-0.913561891,0.720666676
4.634016088,0.158359904,0.652591576
-1.332099634,0.371040953,0.767001907
1.63403788,-0.92361766,0.725227576
-1.326628704,0.356011227,0.773595563
1.669651591,-0.920568115,0.721635753
-1.308742845,0.360331559,0.76981802
1.707670528,-0.915336816,0.715144584
4.639346506,0.172426602,0.656556936
-1.330051775,0.353115825,0.7585041
1.726886075,-0.915152325,0.722415525
4.632928208,0.169857288,0.640698088
-1.322685232,0.355189448,0.774476248
1.763278961,-0.92038155,0.716668699
-1.321655052,0.356510332,0.763021056
1.796482075,-0.9171705,0.72423975
4.643752918,0.163220796,0.633950001
-1.316105252,0.362237056,0.781339186
1.816863876,-0.92364121,0.716907753
4.637131304,0.165845136,0.649619848
-1.320582018,0.360331538,0.764853384
1.855949126,-0.920228721,0.721736337
4.644695652,0.175789964,0.632237832
-1.319744032,0.349774376,0.787575088
1.888553223,-0.924953676,0.71809032
4.65516361,0.16538769,0.64967903
-1.321392507,0.362443697,0.769233239
1.912631244,-0.927010919,0.726372047
4.644247372,0.174816509,0.635058988
1.946907544,-0.932823448,0.725119512
-1.30448691,0.352816545,0.791649591
1.966534678,-0.922947032,0.720090586
-1.328025292,0.354661212,0.77921292
2.00097684,-0.92347997,0.72394375
4.641147296,0.176043168,0.624445616
-1.303717854,0.353376968,0.796686216
2.042331,-0.921922025,0.73097145
4.64256466,0.187165114,0.609256952
2.05839847,-0.91844768,0.72347923
4.638508403,0.181687186,0.627335256
-1.287061887,0.342473206,0.790671176
2.093342974,-0.932456632,0.709501048
4.632271672,0.188084032,0.653442912
2.118053657,-0.919979274,0.702445524
4.63685266,0.20037518,0.65399995
2.150859684,-0.932142007,0.709388285
4.63580474,0.20045892,0.64765302
2.180793416,-0.920608588,0.706002036
4.655765696,0.189443924,0.638249961
2.194463764,-0.923176058,0.705377164
4.63411806,0.185013665,0.659280409
2.22611636,-0.924283462,0.705476996
4.63588152,0.17750406,0.65018054
2.261890256,-0.920486559,0.706490335
4.646986016,0.177740108,0.644214784
2.278364837,-0.923110227,0.704871389
4.647317,0.17773448,0.63868044
2.317507026,-0.920254438,0.698728644
4.647039384,0.184538408,0.653038344
-1.296855732,0.320838566,0.733243938
2.354687752,-0.92594597,0.698764176
4.64330597,0.186748145,0.630919395
2.360771341,-0.933153388,0.698955753
4.6386855,0.166871712,0.642848956
-1.312592625,0.348213372,0.749747161
2.401942708,-0.928654769,0.700301041
4.646255512,0.177191608,0.64212348
2.418585184,-0.935291893,0.697442643
4.637660231,0.177692959,0.634122211
2.454696408,-0.931287344,0.70492456
4.633631878,0.180208558,0.620528583
2.48415874,-0.93913382,0.69284692
4.648608448,0.170349712,0.5679358
2.490792852,-0.936482279,0.691598435
4.643351625,0.15435325,0.4590405
2.518755725,-0.936229285,0.699875145
4.643364508,0.160424414,0.456950634
2.582834118,-0.944489789,0.692430131
4.655858439,0.255659395,0.516770298
-1.146190814,0.17398973,0.952997452
2.631964217,-0.951705235,0.681812955
4.66959712,0.340042637,0.521200677
-1.25612688,0.017153987,0.950154027
2.756705039,-0.952862147,0.681037965
4.684049705,0.563521245,0.580040595
-1.154228917,-0.370226713,0.835633097
2.827812112,-0.973627583,0.695682669
4.697984176,0.686793469,0.607686789
-1.074494288,-0.563840472,0.782776368
2.99039793,-0.978351657,0.703571728
4.698270164,0.9746272,0.594466696
-0.0163498359999998,-0.6813728,0.767786696
3.181866688,-0.979689706,0.719378858
4.697932336,1.312845322,0.617488966
0.5845096,-0.785626425,0.724007725
3.30016832,-1.01328332,0.71962056
4.776160688,1.532137696,0.617168208
0.879110174,-0.773336167,0.715193884
1.767425182,1.235786861,0.618777463
3.551149932,-1.015847014,0.737540838
4.74517324,1.942347692,0.59195205
1.2011023,-0.85833871,0.722664125
1.043815568,1.688139848,0.606004308
3.856382612,-1.009515868,0.725649022
4.661890756,2.391220474,0.558122126
1.544012648,-0.851979808,0.726906608
4.224336588,-1.173552304,0.740323368
4.754477592,2.790800917,0.548087654
1.700297672,-0.816907253,0.719323114
4.455239791,-0.987783887,0.670731473
4.771034024,3.631733197,0.425093668
1.887522808,-0.866879826,0.745181656
4.497181384,-0.851163032,0.665249704
4.54568414,3.756069474,0.457196746
1.99035906,-0.851740954,0.730298334
4.556916335,-0.590781275,0.69790789
4.250544176,4.347489616,0.421069136
2.140759472,-0.871764848,0.729676342
4.600366875,-0.42626625,0.708327375
3.758356392,4.021830568,0.4165538
2.229157253,-0.896968863,0.73730995
4.591019264,-0.374629992,0.71656864
3.607630688,3.8552026,0.453634704
2.253473072,-0.9041681,0.730362876
4.606167361,-0.240286666,0.711061251
3.42230482,4.290144008,0.50140643
2.32189859,-0.931922604,0.714539035
4.6302758,-0.0826407,0.7256535
3.085184912,4.392903936,0.531537264
2.403745472,-0.945822759,0.709953084
4.629427234,-0.020871487,0.711681742
2.922956505,4.15372122,0.57692866
2.432547851,-0.967351556,0.701111932
4.633586959,0.050217012,0.712614587
2.773432544,4.276999188,0.909074946
2.461225712,-0.997230276,0.608547558
4.654095358,0.096725002,0.719943008
2.687972894,4.440167254,0.946793967
2.480061024,-0.999962416,0.602163432
4.64601852,0.110515456,0.729999664
2.669453114,4.0054054,0.826055494
2.463706636,-0.9835994,0.632401756
4.63863469,0.159976238,0.737974867
2.632596525,4.22401977,0.680722145
2.459262755,-0.979096106,0.680873119
4.643022588,0.19052695,0.730214535
2.604460876,4.377681564,0.619628936
2.460179931,-0.984780791,0.699578166
4.621789911,0.236520805,0.739125474
2.578781434,4.51478659,0.534713232
2.450789041,-0.973461965,0.723958068
4.644218956,0.25798065,0.741239174
2.585220172,4.354218459,0.475013573
2.43083188,-0.95980164,0.74270192
4.652537656,0.28218352,0.721984
2.56196618,4.2600957,0.48643294
2.428235466,-0.97099341,0.741268378
4.643571005,0.321037935,0.739335095
2.533588576,4.22119986,0.542124864
2.420959192,-0.97148663,0.721379788
4.64675928,0.31726312,0.730850885
2.567250078,4.371967968,0.50933499
2.401531602,-0.968929888,0.72948541
4.635689312,0.34947117,0.736283696
2.554290897,4.49389243,0.566365581
2.389898226,-0.97078706,0.708521298
4.644038318,0.35977609,0.752605052
2.571247047,4.331832585,0.560695871
2.366701189,-0.964043605,0.712614077
4.648212745,0.386889695,0.735408955
2.54640586,4.365424904,0.564536056
2.3670004,-0.97852564,0.71225404
4.64309628,0.41872552,0.73598864
2.53773727,4.45857571,0.57605798
2.356557704,-0.962774208,0.708810496
4.644486898,0.434264664,0.744959818
2.528702996,4.325919222,0.549165225
2.351173232,-0.975317376,0.7212447
4.63957825,0.46745275,0.7503615
2.51917368,4.37226552,0.566697876
2.34202757,-0.96976177,0.714323199
4.634501252,0.512777496,0.734052652
2.490594432,4.442250648,0.570345944
2.341839779,-0.966873644,0.711208443
4.6406671,0.522087808,0.742715126
2.498887332,4.437645524,0.534297661
2.332919428,-0.972440204,0.725282069
4.635651904,0.555559912,0.744169312
2.489253556,4.429816308,0.543838936
2.326135986,-0.954842202,0.719671516
4.639223888,0.57448071,0.738814324
2.503567733,4.52691705,0.551930041
2.311444638,-0.9523237,0.713852726
4.62805331,0.592741402,0.729546448
2.49651671,4.49574646,0.56601072
2.307530246,-0.971120804,0.708917472
4.632759055,0.610766299,0.737842521
2.508412486,4.439445425,0.585665942
2.291601646,-0.974999075,0.700602462
4.63956489,0.658641238,0.732647241
2.483297882,4.587831986,0.565492953
2.295732712,-0.952166424,0.707838648
4.634928884,0.68221548,0.72800969
2.470284858,4.527106992,0.541520002
2.295144941,-0.964198116,0.720123029
4.64677548,0.719787136,0.713366136
2.453904421,4.572469772,0.545303475
2.293510957,-0.966496276,0.718692075
4.640032105,0.734577685,0.740707065
2.47684602,4.50382603,0.53451664
2.27085676,-0.95899186,0.72456632
4.64176948,0.74791841,0.748431
2.478848629,4.560690408,0.545912712
2.265347446,-0.969488008,0.718932888
4.633127362,0.76952223,0.752372024
2.484839708,4.442742544,0.557089255
2.250630024,-0.962809168,0.71755764
4.636825234,0.790546259,0.765928167
2.48020261,4.513544915,0.539072505
2.249578294,-0.984355759,0.728682627
4.630558355,0.807974612,0.762033687
2.49734382,4.5361021,0.51942765
2.23695861,-0.96825395,0.741930325
4.644613329,0.841161126,0.752877267
2.487283379,4.518115824,0.575359191
2.238858683,-0.970497552,0.714798207
4.627835418,0.85379795,0.752917516
2.493858594,4.571399586,0.57082859
2.236294743,-0.967707033,0.716409605
4.628007112,0.888106264,0.742250328
2.492228797,4.606534906,0.563926683
2.237760511,-0.983549522,0.718302729
4.620875376,0.895439704,0.742502808
2.502319688,4.539632039,0.576043095
2.231295944,-0.984075493,0.710996235
4.62239708,0.924583886,0.72668756
2.510529047,4.544698779,0.570659815
2.229529129,-0.980385947,0.710863705
4.636560608,0.968125688,0.71621476
2.498121386,4.569553592,0.567183256
2.24086463,-0.96863764,0.70995948
4.635271162,0.982381701,0.717854617
2.500888154,4.54800021,0.584680469
2.240057256,-0.97564356,0.699929916
4.633148095,1.01487376,0.705568405
2.508344447,4.588299516,0.57588995
2.239016951,-0.995670372,0.70702235
4.630466556,1.051111945,0.712100189
2.508420672,4.556544694,0.563836724
2.24165096,-0.97684858,0.71922332
4.62824538,1.072510215,0.71602491
2.504904253,4.600106757,0.552498509
2.246096338,-0.986125878,0.728623514
4.633762054,1.135809888,0.713616424
2.464573723,4.592014725,0.573092865
2.275061686,-0.97982655,0.72001893
4.632789902,1.180653844,0.706762682
2.449964645,4.607388155,0.55338833
2.287795451,-0.965296011,0.734996854
4.640709081,1.200823938,0.71764721
2.447618874,4.579637922,0.567195566
2.289418908,-0.977795676,0.727731572
4.6310146,1.233838666,0.72619818
2.452952159,4.605138197,0.555476568
2.286787955,-0.993442735,0.73731516
4.628185494,1.26274947,0.708007612
2.433012838,4.56762328,0.571500902
2.3002889,-0.9826,0.7274961
4.625996576,1.28970388,0.707206752
2.443817592,4.623141232,0.564173576
2.291733384,-0.996258336,0.733309752
4.649361961,1.313696241,0.714883737
2.45143328,4.6101848,0.558963016
2.2827506,-0.976363,0.73923232
4.631374479,1.317265787,0.728586548
2.470490798,4.601906562,0.556729022
2.2646354,-0.9981744,0.7443056
4.635196352,1.33774244,0.728262048
2.482994418,4.610073422,0.587025966
2.248084038,-1.003300598,0.725766906
4.636124644,1.3423001,0.740347206
2.514985915,4.607659334,0.582669745
2.21699609,-0.987442236,0.73123027
4.639790951,1.351344285,0.751563873
2.52298232,4.59359112,0.58800084
2.205317456,-0.994636404,0.727936647
4.641673616,1.357293,0.742085528
2.55342248,4.62249588,0.59896652
2.174016464,-1.017504816,0.718005836
4.622651137,1.361777275,0.755407942
2.571110798,4.600326012,0.576322168
2.158276949,-0.973151794,0.734972384
4.632396914,1.39072475,0.746346611
2.571109384,4.5838778,0.591071448
2.151168691,-0.9877963,0.721636077
4.631788062,1.411051115,0.740246913
2.586703309,4.610662598,0.563680684
2.137146672,-0.965415816,0.741687672
4.62796032,1.427672171,0.734778235
2.587050192,4.604495396,0.578731652
2.130668904,-1.005945823,0.729850799
4.626976404,1.452709016,0.744050036
2.596455912,4.62268328,0.577969955
2.121050504,-0.99919224,0.730329735
4.6265704,1.48447491,0.72692144
2.597703672,4.620845698,0.59617885
2.118326976,-0.979436516,0.7141003
4.629968679,1.502403479,0.749125642
2.598194506,4.602575728,0.5663987
2.115616837,-0.980852444,0.74217815
4.62586999,1.547767595,0.73746557
2.583271239,4.616890062,0.588784364
2.129084116,-0.992104472000001,0.724938616
4.630849312,1.573077752,0.745546464
2.57621104,4.61944892,0.57992824
2.134822732,-1.012105989,0.736754792
4.62241567,1.620527406,0.72725011
2.56418292,4.63586964,0.57867448
2.15197373,-0.99176634,0.73945537
4.623897796,1.664146148,0.726915874
2.552022044,4.622495918,0.565955483
2.168135008,-0.958194424,0.752945656
4.620766574,1.676938638,0.7204218
2.556733502,4.616502,0.568215184
2.15907164,-1.037485,0.75408788
4.624140554,1.710003562,0.712370114
2.561740152,4.652571152,0.578873192
2.160625014,-1.003869361,0.742249919
4.630228788,1.747524074,0.722244656
2.55803288,4.640622235,0.58308648
2.164121104,-1.017507587,0.740233584
4.632831442,1.754428178,0.727451821
2.569053136,4.628663654,0.570754126
2.153582204,-0.994020019,0.754329189
4.627450779,1.78171473,0.72026239
2.577766132,4.623746552,0.599806642
2.141623364,-1.030012296,0.727772634
4.626695682,1.796963112,0.730725572
2.579950986,4.620625285,0.588724
2.14516624,-0.9594221,0.739897
4.625061088,1.827417856,0.724834344
2.586548125,4.62126175,0.586779
2.138033926,-0.977543564,0.745998984
4.626535792,1.858873088,0.71442392
2.5923448,4.633138948,0.586174368
2.1369118,-0.941014082,0.745721388
4.627120708,1.876897588,0.735952231
2.590321863,4.620358583,0.590317887
2.13556414,-0.99219926,0.74230186
4.610112088,1.912044192,0.727036864
2.5945471,4.63207425,0.5744986
2.132190168,-1.01202666,0.758688928
4.626764472,1.946095168,0.719075756
2.596892068,4.643949754,0.569170616
2.136914888,-0.979046036,0.759926456
4.614592037,1.952192658,0.724776222
2.607733224,4.616360904,0.5752851
2.11874138,-1.01364352,0.75324475
4.62858192,1.98942264,0.7142124
2.607020078,4.641232658,0.574701548
2.128962251,-0.976735139,0.750125366
4.636532972,1.996205014,0.71906728
2.615493758,4.619885881,0.578804899
2.11485653,-0.997362665,0.746219965
4.6198084,2.050825525,0.7303324
2.598346094,4.627851172,0.567452211
2.13813535,-1.0340267,0.765374775
4.631688833,2.076965148,0.709193082
2.607721016,4.641385356,0.582193644
2.131375112,-1.008136508,0.748309508
4.616124808,2.091063992,0.714300768
2.61062908,4.62932912,0.59002624
2.125854211,-1.020933496,0.739884208
4.61593388,2.120060588,0.719474484
2.618684936,4.634509176,0.579071676
2.1227986,-0.9728114,0.7565191
4.622827104,2.14798688,0.711484092
2.626207668,4.638204314,0.596026644
2.115392994,-0.997926913,0.737427102
4.620824782,2.167772511,0.710514744
2.623728896,4.638077904,0.589379218
2.121694592,-1.001362992,0.749313586
4.61718173,2.2141966,0.71000103
2.613667128,4.635075792,0.590073096
2.144876131,-0.970001416,0.752822817
4.61640063,2.216876194,0.70736747
2.62645166,4.621097469,0.604461538
2.12183012,-1.015848942,0.735219316
4.630852024,2.264182454,0.71914148
2.615105572,4.62343346,0.593761466
2.147260726,-0.97769307,0.756935303
4.61839816,2.309649208,0.721202988
2.61012722,4.63940597,0.53326125
2.167899868,-0.905519682,0.85796955
4.637383432,2.357958887,0.732782762
2.580148901,4.62747713,0.421194486
2.223356433,-0.79475571,1.030406238
4.642928063,2.554084273,0.721464391
2.41464191,4.638101715,0.41450588
2.489085632,-0.907542432,1.054942976
4.665530272,2.793954244,0.690526096
2.195065806,4.651642509,0.455788384
2.846613072,-0.869090292,0.972372208
4.695791172,2.936024534,0.672910172
2.056288452,4.702685618,0.4740974
3.06858387,-0.937583545,0.936317
4.705424123,3.242094179,0.683525406
1.763903404,4.702447829,0.510466642
3.566675536,-1.037118514,0.874003228
1.588399094,4.77456183,0.538261128
3.756898931,-0.906465705,0.812249172
1.2261859,4.749321985,0.56459356
4.21302872,-0.710953732,0.763757928
0.814085832,4.726346152,0.559054608
4.360462596,-0.0822494439999999,0.751677724
0.51421612,4.800050747,0.530815579
4.34127404,0.268549899,0.765875243
0.0248313179999999,4.693982103,0.486105109
4.44167542,0.71762507,0.79348021
3.73389096,4.500731948,0.765304632
-0.761413415,4.664088955,0.393714495
4.536647794,1.124164462,0.833325318
3.55414075,4.482222,0.71125825
-1.149621783,4.613245942,0.323005703
4.517792025,1.32102415,0.857285975
3.251746072,4.551310888,0.669433568
-1.04712038,3.95651302,0.33205161
4.58287399,1.65721129,0.868113345
3.103036437,4.54710187,0.649457293
-0.951134042,3.662975076,0.36181159
4.570299007,1.822230654,0.854470735
2.831963469,4.599707331,0.668537317
-1.152260686,3.215631962,0.470730094
4.613668507,2.111032531,0.781476397
2.66798135,4.623130035,0.697310227
-1.111863769,2.908424423,0.776525328
4.637746424,2.277566192,0.593841312
2.618700502,4.628325584,0.703013866
-1.161022774,2.829516447,0.778935321
4.646813664,2.320978008,0.593626744
2.536328966,4.634115571,0.702723716
-1.244615691,2.713437111,0.761787669
4.645013082,2.381016078,0.608320362
2.479319114,4.640553549,0.715931562
-1.280001325,2.657434467,0.657308285
4.644513425,2.403173857,0.676076735
2.452288038,4.637124188,0.711789982
-1.108581792,2.628135372,0.608835284
4.644454812,2.411444558,0.709882426
2.413287556,4.635578324,0.712276358
-1.075143415,2.614244983,0.512418781
4.64003821,2.408391158,0.776919506
2.399575146,4.637653878,0.708819556
-1.197415453,2.619665197,0.47239508
4.642350914,2.401869214,0.79992896
2.385252975,4.62438414,0.684704155
-1.156172682,2.64014452,0.456147178
4.648844544,2.37303116,0.811248424
2.36958907,4.6410651,0.68474974
-1.245028522,2.656130842,0.47344674
4.642404854,2.350102906,0.79238082
2.35020261,4.63615217,0.69815534
-1.2068472,2.64573796,0.44099838
4.64460237,2.346164314,0.814376367
2.331359396,4.627626256,0.699466708
-1.2179772,2.6519458,0.47565348
4.64356217,2.322751195,0.786552637
2.303961142,4.624215232,0.693273104
-1.191696224,2.637941944,0.5193854
4.642479104,2.312845776,0.7556446
2.297041883,4.636687071,0.721282834
-1.28896703,2.651574956,0.521706512
4.6419004,2.29620632,0.75281564
2.267801722,4.629029554,0.705536326
-1.299089104,2.641642222,0.521970728
4.64156824,2.28513393,0.75742332
2.267443634,4.647244738,0.715791085
-1.26169246,2.654583835,0.533127185
4.648403736,2.265339964,0.753593804
2.223250603,4.627654805,0.737695874
-1.279807488,2.629736233,0.519203272
4.648831872,2.267727348,0.770605432
2.201590768,4.633694258,0.720335669
-1.273217995,2.632124495,0.51711188
4.638820035,2.252183465,0.77860116
2.18093745,4.635865874,0.717366742
-1.244426646,2.619901732,0.531212216
4.636220973,2.252907834,0.771856992
2.160993235,4.63863021,0.7407867
-1.275531704,2.632133885,0.503934105
4.628754496,2.23287776,0.79659948
2.116189225,4.6454038,0.72668558
-1.291774002,2.606976935,0.505950854
4.635757722,2.241624965,0.798862706
2.104487168,4.63182095,0.72532092
-1.297586488,2.6133228,0.505580264
4.621838568,2.231593575,0.799489496
2.07005616,4.632423908,0.705334388
-1.267356459,2.597885865,0.536068854
4.627394202,2.23149253,0.776019988
2.0581392,4.644344885,0.732465738
-1.21707077,2.600078566,0.527140302
4.623971395,2.221159459,0.785047623
2.027136286,4.630478641,0.720654518
-1.26173628,2.600111954,0.521413294
4.64641586,2.210702127,0.788655797
1.999538076,4.636152932,0.711425256
-1.313068122,2.601499632,0.530848822
4.640436594,2.202761136,0.778967506
1.980057472,4.625446762,0.71944417
-1.289961454,2.596494815,0.52690814
4.642221484,2.20042601,0.78530056
1.957085,4.62881175,0.72678075
-1.300617416,2.60414312,0.53937424
4.639821864,2.18464852,0.77765504
1.928487884,4.633695748,0.73624342
-1.298161596,2.607897492,0.52360598
4.641606106,2.171377738,0.79574147
1.913832024,4.64668012,0.724709536
-1.28640884,2.60781223,0.536361945
4.642881912,2.165688636,0.786178974
1.88669783,4.62199724,0.71861217
-1.306363,2.615464112,0.547680472
4.6332795,2.15301562,0.77619797
1.862125081,4.625360484,0.727923945
-1.276091562,2.603743782,0.563500792
4.64472092,2.15684988,0.76292828
1.832976592,4.626666944,0.742777848
-1.26961245,2.608045146,0.533007166
4.63054345,2.146192334,0.795007914
1.80538125,4.62018225,0.71917175
-1.309409765,2.620215025,0.53550403
4.615864062,2.13137013,0.793456076
1.795379012,4.630390273,0.724608302
-1.302978692,2.62739755,0.528628976
4.619968294,2.119926025,0.803517568
1.758119768,4.632061698,0.726823484
-1.294987464,2.62392306,0.542594136
4.628023336,2.11707231,0.794659936
1.714319412,4.620387286,0.733248968
-1.299589056,2.616107576,0.51979558
4.633936432,2.120939628,0.82567599
1.695011956,4.638684872,0.72218821
-1.290139839,2.609242001,0.521004663
1.657162749,4.637994754,0.723918729
-1.315791658,2.60770891,0.5241621
4.613370606,2.13045463,0.8261313
1.620925104,4.625640768,0.718483288
-1.299204865,2.60492619,0.536562905
4.619372647,2.130963518,0.813963441
1.60881542,4.622698472,0.704044292
-1.2798324,2.60757804,0.53392672
4.60184746,2.127068584,0.815732412
1.571443096,4.637704055,0.714843788
-1.31080954,2.604357545,0.561859815
4.605360944,2.131832888,0.779577616
1.551926684,4.620903879,0.706519431
-1.322048478,2.602273132,0.539080512
4.620474888,2.133195328,0.806449848
1.52826124,4.635000237,0.714937261
-1.300450056,2.611154584,0.53385304
4.623181295,2.11624562,0.816733825
1.500716816,4.636064818,0.711366393
-1.33915436,2.6210103,0.5492353
4.62326768,2.10494185,0.80078535
1.491271155,4.62789002,0.73119368
-1.301306899,2.627002915,0.545673512
4.620677165,2.092245475,0.81103748
1.459327422,4.630998118,0.727643638
-1.308890633,2.629905688,0.55925214
4.611520017,2.088027288,0.79927514
1.455064072,4.629019444,0.725794756
-1.314037827,2.644203054,0.558806811
4.621036717,2.067897166,0.803381419
1.4215748,4.6279514,0.73040032
-1.322636364,2.647913449,0.548215801
1.3829489,4.63336675,0.743489742
-1.306506012,2.64397046,0.52958956
1.369354765,4.630364988,0.730473584
-1.320090638,2.647940102,0.540309899
1.334918705,4.632241895,0.742371265
-1.285336711,2.6464601,0.524657626
1.32152335,4.63045544,0.71999995
-1.314549512,2.670230566,0.566938547
4.53439692,2.04504294,0.80306023
1.305125964,4.641656825,0.724479926
-1.321532915,2.669646144,0.556444631
1.2652309,4.633009575,0.7207217
-1.288896587,2.661293381,0.550300862
1.234367499,4.628910621,0.726462413
-1.32071772,2.666005592,0.559203856
1.21823616,4.6343312,0.72829876
-1.307716278,2.666136476,0.572909269
4.580584272,2.053183376,0.813387244
1.18889489,4.62877563,0.734207
-1.312081536,2.671103992,0.556186664
1.166562743,4.633416784,0.726457385
-1.298922904,2.664734128,0.572440976
1.1347172,4.6279252,0.7249984
-1.324402008,2.6720924,0.580222648
1.090490534,4.632456028,0.717626108
-1.326984296,2.661352304,0.571685682
1.071326708,4.630298369,0.723524491
-1.317798753,2.661831028,0.559386145
1.035695465,4.626005698,0.710672409
-1.324840336,2.662731964,0.562991236
1.003594868,4.62991129,0.71859495
-1.331813764,2.666600778,0.565472074
4.524299734,2.093518407,0.850755531
0.98179156,4.62027976,0.73571467
-1.307539678,2.66059209,0.5651556
4.500640984,2.10440448,0.8560872
0.951490708,4.636614861,0.719239304
-1.326911112,2.664701844,0.57687802
0.941536544,4.629624816,0.71760502
-1.314229808,2.670226568,0.587222136
0.913863504,4.64561168,0.735862008
-1.330061159,2.678189798,0.589480105
4.475371881,2.091374918,0.830701305
0.88403632,4.62677516,0.71443504
-1.324744,2.684001,0.602558
0.870491947,4.637702544,0.731414738
-1.321263413,2.686322776,0.600116693
0.833267346,4.633233157,0.728887921
-1.3234011,2.68604489,0.598011083
4.5157614,2.08321114,0.835554958
0.8020894,4.63925828,0.73205448
-1.331356658,2.689868936,0.579232554
0.78421202,4.64640866,0.72296976
-1.320204184,2.688872136,0.591840336
0.757318308,4.627937929,0.717079996
-1.322368441,2.696646984,0.596311076
4.455961327,2.081593352,0.838093828
0.73487222,4.63025298,0.72317504
-1.318779785,2.693941485,0.59341395
0.690668415,4.63214617,0.718182395
-1.32642895,2.687807012,0.598952702
0.658962038,4.636643518,0.715803852
-1.333115084,2.692507646,0.599172866
4.414909884,2.114851154,0.840131934
0.634383258,4.631929232,0.717870612
-1.329858852,2.686290978,0.60581307
4.513486648,2.121597728,0.83393932
0.58479852,4.632181,0.7186208
-1.328469985,2.67540251,0.595933105
4.408417481,2.161847954,0.862650967
0.569827696,4.635365167,0.712626576
-1.318594413,2.675508324,0.602424124
0.542401536,4.633321396,0.719429336
-1.322346395,2.681897229,0.613772465
4.442712575,2.146236135,0.832003475
0.51086252,4.64024656,0.73019528
-1.34012492,2.685858525,0.611122238
4.5025704,2.13570525,0.84001654
0.503064624,4.638434881,0.719814583
-1.321742901,2.690485971,0.615371845
4.282653414,2.141642606,0.82214817
0.485887108,4.635649566,0.722856726
-1.330936555,2.705045715,0.610112475
4.384198877,2.095431499,0.836194835
0.455711163,4.634088418,0.730562664
-1.338673602,2.709612856,0.609956034
4.526816043,2.068022796,0.841119069
0.442287956,4.634437824,0.730753992
-1.323885445,2.710528852,0.603942254
4.20974131,2.095737784,0.847582668
0.417052275,4.6342065,0.72574316
-1.330134272,2.718894538,0.606273638
4.35435584,2.05793489,0.85062439
0.396518836,4.648459732,0.711743768
-1.33858787,2.728287735,0.58998301
4.312391556,2.041015082,0.898988612
0.324647612,4.633906432,0.716625976
-1.327006222,2.692446353,0.503160393
4.110502778,2.158742853,1.134576893
0.1309972,4.6519217,0.7190367
-1.333688783,2.577800284,0.481280051
4.171810612,2.481298824,1.214912236
0.030393313,4.684889929,0.709423486
-1.36219106,2.51361664,0.47095774
4.393829914,2.669916584,1.267675894
-0.21729118,4.70265109,0.68994545
-1.361469004,2.35036224,0.515769463
4.280999516,3.14431104,1.119980773
-0.496226224,4.711525468,0.689308236
-1.36197068,2.16130228,0.581776975
4.452248608,3.733164232,0.92991124
-0.661287158,4.771498894,0.70345902
-1.396705104,2.050180188,0.597269006
4.184357224,3.935875672,0.862716564
-0.964509271,4.680496614,0.730168513
-1.386106291,1.818111439,0.609996227
3.231818705,4.104338555,0.789543615
-1.175894759,4.463072754,0.766913831
-1.371572,1.583097525,0.58558167
2.731708,4.287842925,0.81763839
-1.130041815,4.122573745,0.76779289
-1.411226463,1.390484239,0.560795593
2.425123824,4.346387728,0.838723936
-1.191293824,3.819776872,0.744742008
-1.430922768,1.030572536,0.533024696
1.985814837,4.451539826,0.844325636
0.25427864,2.407389384,0.664053992
-1.18052068,3.631173042,0.730933046
-1.50452332,0.697947256,0.53169044
1.69387018,4.432397456,0.81418844
0.609718988,2.21910056,0.667373356
-1.251068596,3.40753448,0.686194348
-1.489137178,0.107741288,0.504532608
1.350325382,4.548791528,0.809336448
-1.273256556,3.206131224,0.652711804
-1.495314838,-0.736170227,0.457900181
1.02717755,4.570688575,0.803284775
-1.27472388,3.095740048,0.6384282
-1.245013228,-0.805756991,0.467342516
0.85777424,4.57576528,0.79426172
-1.300395744,2.927769514,0.6391206
-0.805588104,-0.820844192,0.582843096
0.606782714,4.614840472,0.725967264
-1.323049222,2.754388908,0.642232314
-0.379264056,-0.898197496,0.617335088
0.357745768,4.636250088,0.705405936
-1.333987408,2.693472424,0.625741616
-0.228766175,-0.920077506,0.571572379
0.276873175,4.652697906,0.733237021
-1.332305948,2.614236244,0.649313007
-0.05038513,-0.889102123,0.8292856
0.19101229,4.665916159,0.5765892
-1.336596884,2.552355148,0.66458358
0.062983728,-0.891160832,0.788968784
0.14785142,4.66904452,0.60179026
-1.344492088,2.524973476,0.666910296
0.101624408,-0.946738288,0.768265232
0.137097692,4.679106188,0.616658168
-1.33801164,2.47449312,0.68230252
0.151409964,-1.004332646,0.64936427
0.136039356,4.671451666,0.69653183
-1.349985918,2.440144256,0.682042015
0.194852622,-1.00037721,0.593699852
0.122578242,4.68740369,0.735198772
-1.34604368,2.39139856,0.70444762
0.230300906,-1.186178338,0.506433244
0.131552662,4.672090274,0.790840388
-1.340106832,2.345339848,0.687226896
0.262399314,-1.03603877,0.479607912
0.13738077,4.66473715,0.81492516
-1.341327507,2.333386956,0.687146243
0.260324234,-1.144720196,0.467934892
0.152598485,4.67270341,0.81896893
-1.341553304,2.30495415,0.68098374
0.26514217,-1.107450141,0.509422251
0.17624209,4.669036443,0.790461027
-1.33633297,2.290125405,0.689213175
0.244480632,-0.986583448,0.533095128
0.217154799,4.655170489,0.774894021
-1.332052304,2.281239072,0.687663512
0.2412728,-1.012853,0.5385511
0.231960688,4.67442264,0.770232576
-1.344218995,2.265982895,0.70772043
0.224542874,-1.065781838,0.550606172
0.268995848,4.657243624,0.759275144
-1.3433852,2.2594808,0.6988868
0.217409239,-0.996209242,0.574325346
0.285287582,4.657837804,0.743956148
-1.335721884,2.226764804,0.697097764
0.23315977,-1.07730075,0.56045223
0.293992672,4.665108,0.754167128
-1.335695552,2.19845127,0.70046328
0.238398858,-0.996355154,0.558582246
0.308629452,4.645653124,0.758975724
-1.333756272,2.182550008,0.696505872
0.245060295,-0.97790155,0.550304355
0.311293958,4.66452438,0.767719502
-1.342175816,2.1429342,0.686650608
0.269499658,-1.0181292,0.564129645
0.305956834,4.6624604,0.757584585
-1.338131346,2.108455778,0.68281762
0.281008528,-1.024042546,0.564817248
0.307880592,4.646541706,0.759866672
-1.330474663,2.09996692,0.682236795
0.271195619,-1.050834901,0.563659557
0.320961005,4.679489605,0.762841515
-1.333343178,2.058075259,0.677470198
0.295949084,-1.043293807,0.575084542
0.310112852,4.655815279,0.756077426
-1.33616174,2.045487194,0.6848765
0.293199962,-1.027762149,0.561430772
0.316585464,4.669366872,0.770155784
-1.335642726,2.014070058,0.681754514
0.297168229,-1.004241928,0.575935095
0.321894183,4.654677944,0.760997565
-1.329433156,1.98548502,0.688538812
0.29398666,-1.063952685,0.562637841
0.33249902,4.645961805,0.775192927
-1.332353358,1.975784346,0.683876036
0.287032056,-1.014056096,0.564619056
0.343352138,4.659662692,0.777793888
-1.327194736,1.945651424,0.690420096
0.28716586,-1.036490018,0.573201646
0.35149628,4.657652436,0.772739908
-1.326453377,1.924889309,0.690227452
0.274320482,-1.00302056,0.57943385
0.371981557,4.66789344,0.771390725
-1.329442272,1.907797592,0.695909368
0.274632218,-1.024903398,0.580208146
0.375559407,4.658019023,0.770489479
-1.332056398,1.884308006,0.70375188
0.26400098,-1.024256194,0.581364732
0.39328922,4.659085334,0.771810348
-1.326515319,1.84896774,0.687904409
0.268071704,-1.08713601,0.58558413
0.394759512,4.65458322,0.76764614
-1.324271112,1.83791769,0.700215672
0.258043632,-1.011441176,0.594105112
0.409463344,4.656004208,0.763618504
-1.323864397,1.815831947,0.70043473
0.241679903,-1.016514937,0.585877126
0.430532537,4.659104177,0.777667354
-1.325360537,1.798658525,0.705083383
0.239233997,-1.017737573,0.590909368
0.435603292,4.670832772,0.776930848
-1.332577532,1.749382924,0.699941752
0.26650067,-1.023478366,0.594267322
0.408947175,4.670671785,0.781291405
-1.328036415,1.707777642,0.704866235
0.274618523,-1.032954063,0.589544127
0.399766783,4.622002877,0.792958867
-1.339320728,1.681083398,0.69129461
0.2914078,-1.05119044,0.586659788
0.3823081,4.66112162,0.799555151
-1.330103455,1.634720975,0.698180975
0.308177,-1.01957764,0.58611236
0.3652821,4.644035328,0.801643728
-1.3248719,1.60514454,0.69850508
0.298858615,-1.01984345,0.577837905
0.377494286,4.65798502,0.807084442
-1.322240062,1.592818726,0.69416888
0.292745565,-1.02616078,0.56860742
0.386312205,4.64772754,0.81491494
-1.32448631,1.564354977,0.698490884
0.282803782,-1.01562861,0.569505083
0.401016784,4.63908768,0.808586096
-1.32306116,1.54945344,0.69171076
0.28256958,-0.974946644,0.569144056
0.404093375,4.635633125,0.808608
-1.331637617,1.516762274,0.689331376
0.280384245,-0.98358934,0.58252139
0.40969426,4.65619468,0.78773972
-1.33235104,1.48163805,0.68552708
0.282332414,-0.987272834,0.582870456
0.40858493,4.61168917,0.78414372
-1.330925139,1.467592682,0.692728162
0.279267412,-0.987384524,0.580233474
0.41483119,4.64008387,0.789820505
-1.324485983,1.432288548,0.692238564
0.280449875,-1.011199965,0.579277897
0.41541525,4.63611877,0.793690534
-1.327277366,1.398162386,0.708966062
0.278751585,-1.003371905,0.560364595
0.418639127,4.590768489,0.821961189
-1.328692581,1.370746402,0.695898579
0.29652383,-0.98592288,0.58379623
0.396503947,4.642210208,0.795422407
-1.330999519,1.345887487,0.69406197
0.28292092,-1.010488318,0.57016326
0.41476112,4.597537852,0.81688636
-1.329446902,1.326461013,0.692831022
0.288238621,-0.973017552,0.575927435
0.409276561,4.640553168,0.815873335
-1.327874655,1.29843465,0.694743585
0.280201072,-0.962312034,0.582386064
0.421508992,4.611254226,0.809983104
-1.334956464,1.266324496,0.69298072
0.277794924,-0.979687088,0.605443616
0.426900152,4.627666176,0.778270768
-1.337735175,1.251484825,0.69032605
0.276164216,-0.987923056,0.598594604
0.430956728,4.634651552,0.791077832
-1.34236936,1.22185136,0.6966002
0.270313172,-0.974632552,0.5916191
0.442549264,4.590536176,0.8071162
-1.339450446,1.186170476,0.702336894
0.26947094,-1.00090609,0.595355002
0.4453939,4.60039235,0.80549237
-1.3422008,1.1748514,0.70831756
0.263316982,-0.982240208,0.588809152
0.458752672,4.624539432,0.821359992
-1.324893658,1.137918136,0.69509154
0.26417888,-0.98616041,0.59366262
0.457755296,4.581826878,0.821353004
-1.331641908,1.118229568,0.695004336
0.268066494,-0.985767235,0.58936318
0.451462476,4.59681831,0.83503172
-1.326318258,1.08884415,0.713185648
0.259342365,-0.98505876,0.590134084
0.467781915,4.61529204,0.844536364
-1.334211788,1.052572208,0.69783134
0.261603112,-1.007378632,0.607196072
0.461204056,4.612069934,0.819514036
-1.327949691,1.039351968,0.705586944
0.258089082,-0.987772538,0.600097912
0.467278062,4.593294642,0.836845592
-1.331622461,1.007313593,0.710807136
0.254514908,-1.000991056,0.605214112
0.472442991,4.617129538,0.833985424
-1.33158671,0.978982778,0.700295432
0.2485647,-1.002307368,0.613195892
0.4805447,4.589001432,0.821588692
-1.329498986,0.95942476,0.711112638
0.253257657,-0.974583281,0.603483175
0.47357152,4.60889184,0.844122
-1.329255368,0.931568624,0.704537856
0.246338286,-0.981717252,0.601641994
0.48341102,4.56481336,0.84669458
-1.332154938,0.910835298,0.702897708
0.252994882,-0.960352422,0.616860805
0.473613552,4.616594008,0.81990348
-1.338902223,0.878030552,0.706397507
0.251321093,-0.973464233,0.610234301
0.473796496,4.598589424,0.834540272
-1.330574946,0.853800805,0.704449334
0.239997322,-0.980647843,0.611302814
0.494671154,4.581105249,0.833190998
-1.332636954,0.834573168,0.707158498
0.24456602,-0.956104224,0.624072972
0.48431102,4.535601776,0.807629972
-1.327772132,0.808670733,0.700175681
0.234111142,-0.966143586,0.620373236
0.500681671,4.472813907,0.816090418
-1.320498942,0.772462852,0.700541
0.233735698,-0.966645149,0.628477577
0.501462454,4.538107873,0.802284371
-1.33077995,0.7523237,0.70611855
0.236821465,-0.965452635,0.62119316
0.496103639,4.602858379,0.823072136
-1.328690979,0.715915176,0.70454584
0.235047076,-0.968679616,0.613512704
0.492512846,4.530675064,0.839191284
-1.325274444,0.692897504,0.697037212
0.24065888,-0.96379323,0.60861402
0.480160028,4.586624187,0.853976462
-1.329895656,0.656674178,0.69983219
0.239910876,-0.960506164,0.60455033
0.476507964,4.540271404,0.86455137
-1.32397109,0.63020257,0.68940723
0.23112295,-0.969260225,0.6123995
0.49279808,4.48431246,0.8496898
-1.322811908,0.616573488,0.691296872
0.229580472,-0.94896524,0.630562264
0.502379768,4.55727144,0.812711616
-1.320305248,0.58563308,0.698481752
0.225614625,-0.95977599,0.62470566
0.512033925,4.560529362,0.841980492
-1.316178849,0.562774442,0.708421364
0.21458032,-0.96874184,0.630999
0.541248872,4.533666736,0.8385385
-1.319115803,0.547026471,0.711488056
0.215232071,-0.951719835,0.628850172
0.544687345,4.575898675,0.85387754
-1.315515155,0.51192068,0.707197595
0.214890254,-0.9624508,0.636466678
0.54138499,4.552282,0.83621543
-1.318651147,0.498768221,0.705040428
0.21245795,-0.95397701,0.641046666
0.544222925,4.473937385,0.820452759
-1.323623417,0.460926577,0.695189778
0.212145791,-0.989179869,0.613666691
0.538718462,4.514655342,0.901040262
-1.31736446,0.42079852,0.71379957
0.2089868,-1.114846402,0.502814628
0.5135206,4.331878036,1.179187496
-1.31852447,0.410212,0.70896604
0.210438325,-1.087875725,0.50714425
0.517680832,4.438691464,1.1894902
-1.315647936,0.32228772,0.695584083
0.276158417,-1.009514471,0.543940689
0.322475986,4.522974282,1.104450562
-1.322256655,0.190279234,0.673462677
0.3793311,-0.9867853,0.5691179
-0.014465267,4.502474471,1.010008397
-1.34318042,0.08533351,0.68581935
0.457889425,-0.968262033,0.593748518
-0.272107525,4.471233749,0.920802546
-1.348208614,-0.0980358099999999,0.674104524
0.603484998,-0.975150087,0.611472873
-0.748004258,4.524357277,0.846315117
-1.36741304,-0.33839718,0.66033178
0.775681164,-0.944771566,0.632371279
-1.111014992,3.932581448,0.755503788
-1.4042182,-0.481805408,0.674177296
0.890855474,-0.98815052,0.622029046
-1.126700799,3.38586302,0.764223279
-1.274385038,-0.69697901,0.717765682
1.113004651,-0.98777528,0.611915413
-1.167825622,2.63427216,0.762450014
-1.079391205,-0.712897525,0.71664034
1.278528472,-1.042634928,0.593978688
-1.081746255,2.207993745,0.76990548
0.9269309,0.879360148,0.650883664
-0.770079675,-0.746941751,0.700884732
1.622246872,-1.080098382,0.57763428
-1.17579842,1.845596145,0.7727457
-0.561787991,-0.817965933,0.702243699
1.95420627,-1.023076388,0.565174561
-1.21946118,1.508654392,0.771111526
-0.4321504,-0.7810288,0.695239
2.334338324,-1.142599862,0.548472227
-1.22989726,1.37290513,0.767313395
-0.257436814,-0.847192912,0.696314779
3.069133776,-1.13356077,0.484905922
-1.26356436,1.0877097,0.78251758
-0.11006043,-0.85834122,0.68782443
3.745150029,-1.020482799,0.496173672
-1.303634694,0.885538914,0.759364608
-0.062796359,-0.858402056,0.690644092
4.304267742,-1.064988957,0.486125111
-1.299853132,0.814765022,0.752975894
0.00886518599999997,-0.865800891,0.701636492
4.243011925,-0.786591676,0.500720382
-1.311874625,0.70825422,0.75214921
0.04862725,-0.885025935,0.694326365
4.416128128,-0.670262364,0.539439488
-1.302390652,0.640197526,0.734769608
0.158758011,-0.883642182,0.682078003
4.227598432,-0.250408288,0.561922632
-1.315305972,0.485169148,0.729233578
0.267660552,-0.901088756,0.710627016
-1.320057414,0.332847218,0.70082216
0.31041836,-0.898282456,0.688744136
4.390111348,0.254532584,0.617157608
-1.326162593,0.275776956,0.705725372
0.369290122,-0.894894324,0.70493662
4.311014,0.431676,0.955089
-1.339952911,0.20247833,0.56574208
0.424167852,-0.900926882,0.701133582
4.312613366,0.538266308,0.927574861
-1.314663736,0.158089632,0.576834244
0.472126255,-0.916354853,0.695581714
4.570486317,0.588585957,0.769658964
-1.3123209,0.1427241,0.6447702
0.49628054,-0.910119892,0.68937532
4.551864845,0.602807231,0.711027181
-1.321369135,0.134764427,0.669270577
0.521671269,-0.90940498,0.684594529
4.52860228,0.61570756,0.64076796
-1.342740368,0.126300364,0.699935424
0.56886897,-0.90811824,0.68024044
4.502439632,0.6213039,0.529562084
-1.33913279,0.123635625,0.753288395
0.61321885,-0.92154536,0.68632794
4.538696314,0.625879056,0.490346399
-1.332354224,0.127720304,0.774577916
0.634642672,-0.915653976,0.682959576
4.43650511,0.629758357,0.4876699
-1.34005847,0.124108011,0.7797117
0.66656067,-0.92162586,0.687309258
4.56421404,0.62432939,0.404400605
-1.322681,0.141235,0.8158805
0.693874898,-0.908606242,0.704455146
4.414336185,0.60888973,0.17803384
-1.324134229,0.152526518,0.933882144
0.7036561,-0.918030588,0.694645072
4.556241186,0.628256152,0.178943398
-1.324788743,0.152948124,0.923501851
0.701558926,-0.907090216,0.694914082
4.468718602,0.59806107,0.311370902
-1.328865371,0.173303015,0.860487979
0.700461158,-0.911937502,0.69372778
4.56923348,0.6053501,0.3877914
-1.3297882,0.17812325,0.816649
0.693888216,-0.90594686,0.688738241
4.569740928,0.603078648,0.51702984
-1.333030338,0.187218042,0.75041586
0.691212284,-0.899993103,0.683274272
4.517561826,0.610652114,0.579575044
-1.330728789,0.191075879,0.719783734
0.683830462,-0.90639666,0.68773372
4.486442422,0.59080044,0.621782962
-1.323240377,0.20496846,0.699677233
0.682662093,-0.906585646,0.683104299
4.485268705,0.592845181,0.597502333
-1.325248735,0.214186173,0.713510589
0.693060704,-0.898043488,0.691504656
4.424377538,0.618566408,0.585577836
-1.324468932,0.209435888,0.721885496
0.693313461,-0.908219717,0.69495672
4.511794996,0.619322836,0.590072072
-1.332857664,0.215738776,0.719624952
0.702261932,-0.9088227,0.701958192
4.47834607,0.630451154,0.565818172
-1.34850179,0.216444662,0.735446116
0.711132747,-0.916917762,0.69523047
4.496726325,0.64979227,0.54832735
-1.32461871,0.212733604,0.74382562
